4221 4235 4224 0 0 0 0 0 0 0 0 0 0 0 0 0 0 0 0 0 0 0 0 0 0 0 0 0 0 0 0 0 0 0 2332 2365 0 2325 0 0 0 0 0 0 0 0 0 0 0 0 0 0 0 2289 0 0 0 0 0 0 0 0 0 0 0 0 0 0 0 0 0 0 0 0 0 0 0 0 0 0 0 0 0 0 0 0 0 0 0 0 0 0 0 0 0 0 0 0 0 0 0 0 0 0 0 0 0 0 0 0 0 0 0 0 0 0 0 0 0 0
4226 4187 0 0 0 0 0 0 0 0 0 0 0 0 0 0 0 2540 2447 0 0 0 0 0 2470 2399 2412 2391 2420 2386 2388 2403 2397 2404 2390 2381 2421 2397 2346 2407 2372 2397 2343 2359 2350 2370 2340 2381 2357 0 2331 2375 2346 2350 2354 2329 2361 2326 2381 2304 2354 2360 2341 2301 2336 0 0 0 0 0 0 0 2336 0 2326 0 2380 2344 0 0 0 0 0 0 0 0 0 0 0 0 0 0 0 0 0 0 0 0 0 0 0 0 0 0 0 0 0 0 0 0 0 0 0 0 0 0 0 0 0 0
4197 4168 0 0 0 0 0 0 0 0 0 0 0 0 0 0 0 2430 2430 2429 0 0 0 2428 2391 2392 2408 2358 2370 2369 2364 2367 2344 2358 2351 2369 2347 2354 2325 2335 2331 2341 2347 2337 2390 2353 2316 2327 2359 2356 2349 2326 2364 2327 2288 2329 2319 2285 2344 2344 2326 2323 2351 2326 2318 2300 2366 2266 2301 2312 2359 2343 2329 2295 2353 2345 2327 2391 0 2354 2329 2353 2330 2359 2336 2349 2331 0 0 0 2371 2396 0 0 0 0 0 0 2414 0 0 0 0 0 0 0 0 0 0 0 0 0 0 0 0 0 0 0 0 0
4165 0 0 0 0 0 0 0 0 0 0 0 2472 2483 2453 2471 2423 2432 2425 2467 2463 2410 2410 2409 2381 2388 2410 2375 2388 2396 2365 2365 2373 2376 2367 2387 2378 2376 2347 2364 2343 2335 2318 2356 2362 2333 2323 2331 2343 2320 2330 2339 2353 2345 2372 2346 2403 2324 2343 2331 2349 2346 2353 2348 2344 2349 2343 2357 2345 2373 2327 2340 2345 2349 2351 2339 2355 2337 2364 2355 2346 2361 2332 2346 2347 2365 2360 2327 2354 2367 2333 2371 2339 2360 2329 2379 2365 2363 2343 2382 2419 0 0 0 0 0 0 0 2356 2395 2429 2412 2451 0 0 0 0 0 0 0
4184 0 0 0 0 0 0 0 0 2593 2517 2569 2468 2489 2495 2442 2453 2443 2436 2419 2441 2405 2398 2397 2383 2379 2404 2370 2369 2363 2364 2359 2353 2349 2352 2353 2369 2365 2362 2351 2330 2349 2351 2349 2361 2344 2355 2334 2345 2335 2346 2356 2329 2346 2340 2351 2334 2339 2343 2356 2330 2344 2323 2345 2349 2336 2346 2354 2334 2325 2318 2340 2355 2356 2319 2340 2340 2342 2362 2328 2357 2365 2357 2349 2311 2353 2355 2353 2326 2332 2350 2360 2362 2387 2352 2352 2366 2345 2382 2347 2347 2398 2393 2418 0 0 0 0 0 2402 2426 2412 2424 2495 2517 0 0 0 0 0
0 0 0 0 0 0 0 0 0 2534 2498 2467 2477 2444 2435 2428 2412 2399 2402 2392 2357 2368 2369 2410 2384 2374 2385 2357 2377 2364 2345 2344 2345 2347 2352 2347 2345 2330 2330 2332 2354 2339 2348 2359 2347 2341 2350 2321 2341 2329 2329 2348 2314 2323 2333 2339 2324 2344 2338 2324 2316 2332 2313 2344 2334 2329 2346 2330 2331 2329 2317 2345 2331 2350 2346 2307 2334 2359 2355 2343 2340 2319 2342 2339 2341 2318 2316 2332 2354 2334 2344 2353 2381 2358 2340 2349 2329 2360 2358 2348 2356 2341 2352 2394 2421 2393 0 0 2388 2404 2363 2420 2363 2416 2457 2435 0 0 0 0
0 0 0 0 0 0 0 0 0 2530 2524 2503 2464 2489 2417 2434 2418 2400 2421 2435 2427 2397 2406 2414 2417 2393 2403 2390 2386 2383 2374 2374 2381 2372 2380 2359 2371 2355 2358 2369 2361 2364 2368 2356 2370 2353 2344 2367 2371 2362 2343 2356 2355 2349 2351 2356 2365 2353 2348 2358 2354 2349 2373 2349 2366 2366 2364 2368 2361 2359 2353 2364 2356 2337 2351 2352 2377 2369 2398 2350 2359 2351 2359 2387 2372 2359 2357 2332 2349 2373 2375 2363 2368 2388 2372 2341 2360 2375 2370 2381 2366 2363 2398 2397 2394 2379 2437 0 2448 2386 2432 2426 2436 2461 2426 2467 2572 2522 0 0
0 0 0 0 0 0 0 0 0 0 2548 2463 2415 2442 2420 2402 2415 2431 2399 2431 2396 2393 2383 2382 2374 2372 2358 2388 2370 2371 2367 2352 2354 2356 2359 2362 2345 2333 2340 2360 2348 2335 2367 2354 2359 2340 2362 2345 2328 2337 2340 2352 2333 2326 2332 2355 2343 2337 2329 2335 2343 2347 2333 2344 2352 2355 2338 2346 2344 2349 2334 2346 2345 2338 2336 2339 2349 2372 2362 2343 2343 2340 2344 2334 2349 2373 2352 2332 2343 2340 2346 2342 2343 2350 2348 2351 2361 2343 2359 2369 2355 2349 2349 2369 2401 2357 2381 2374 2346 2361 2375 2425 2427 2369 2394 2422 2412 2451 0 0
0 0 0 0 0 0 0 0 2500 2458 2428 2405 2407 2418 2435 2404 2427 2408 2408 2393 2386 2395 2363 2402 2387 2378 2375 2365 2384 2366 2358 2365 2347 2385 2371 2359 2356 2356 2358 2360 2368 2353 2345 2351 2344 2340 2347 2357 2343 2369 2344 2355 2329 2341 2327 2334 2346 2344 2342 2336 2338 2351 2337 2353 2354 2333 2340 2344 2350 2358 2338 2343 2343 2348 2361 2352 2347 2347 2336 2341 2369 2338 2359 2357 2350 2351 2359 2350 2352 2355 2353 2347 2338 2345 2354 2365 2342 2340 2352 2341 2360 2364 2364 2372 2370 2352 2396 2391 2343 2344 2358 2383 2399 2379 2434 2360 2413 2461 2480 0
0 0 0 0 0 0 0 2584 2463 2448 2459 2418 2418 2428 2425 2410 2377 2390 2397 2393 2398 2409 2397 2387 2374 2385 2372 2378 2373 2353 2373 2363 2361 2359 2356 2393 2379 2363 2356 2368 2358 2352 2367 2342 2359 2356 2346 2339 2358 2354 2340 2353 2353 2366 2350 2339 2345 2341 2342 2344 2352 2341 2339 2345 2360 2347 2332 2336 2345 2348 2333 2349 2348 2335 2337 2344 2353 2359 2349 2343 2347 2341 2343 2354 2353 2344 2343 2343 2343 2343 2337 2344 2360 2371 2343 2347 2364 2356 2377 2344 2372 2366 2334 2366 2346 2359 2378 2419 2368 2359 2381 2393 2385 2395 2390 2389 2409 2413 2517 0
0 0 0 0 0 0 2559 2525 2446 2414 2409 2416 2398 2401 2391 2392 2386 2379 2383 2378 2378 2394 2375 2379 2374 2378 2386 2383 2369 2365 2361 2361 2353 2363 2377 2359 2365 2363 2358 2363 2361 2357 2355 2364 2358 2362 2346 2353 2343 2351 2345 2343 2334 2355 2349 2347 2347 2342 2346 2348 2348 2342 2361 2347 2348 2344 2327 2341 2352 2350 2347 2333 2353 2345 2347 2342 2340 2356 2363 2339 2355 2343 2351 2338 2351 2353 2338 2370 2343 2347 2358 2349 2356 2366 2343 2349 2349 2341 2367 2360 2390 2357 2354 2379 2380 2369 2367 2377 2376 2384 2384 2368 2374 2358 2374 2383 2398 2454 2433 2489
0 0 0 0 2597 2571 2574 2576 2452 2436 2413 2428 2408 2377 2404 2388 2411 2388 2392 2391 2416 2387 2392 2395 2389 2382 2383 2364 2381 2364 2377 2374 2371 2383 2361 2360 2374 2370 2370 2374 2359 2361 2359 2359 2355 2362 2367 2346 2355 2354 2351 2361 2357 2343 2347 2356 2347 2344 2354 2367 2347 2354 2346 2364 2358 2345 2354 2353 2349 2345 2347 2361 2341 2364 2360 2354 2359 2356 2350 2347 2357 2355 2360 2350 2365 2358 2366 2356 2367 2353 2349 2343 2350 2345 2356 2366 2370 2361 2349 2361 2355 2365 2364 2356 2337 2373 2357 2397 2369 2399 2383 2405 2413 2395 2431 2372 2415 2435 2473 2485
0 0 0 2552 2544 2482 2443 2467 2404 2401 2391 2374 2389 2382 2370 2363 2368 2371 2379 2383 2390 2378 2360 2373 2378 2359 2368 2356 2356 2371 2359 2363 2341 2368 2356 2355 2362 2345 2351 2353 2368 2347 2355 2349 2354 2346 2345 2344 2334 2338 2338 2349 2333 2340 2343 2350 2335 2342 2345 2334 2338 2343 2345 2349 2337 2345 2348 2331 2337 2345 2356 2334 2337 2337 2340 2341 2346 2333 2342 2342 2341 2339 2325 2332 2334 2338 2327 2341 2340 2338 2341 2319 2338 2341 2327 2320 2331 2324 2332 2339 2350 2341 2348 2329 2358 2325 2346 2334 2351 2347 2343 2339 2345 2351 2340 2349 2357 2366 2378 2404
0 0 0 0 2578 2505 2467 2452 2411 2422 2416 2406 2396 2388 2392 2394 2396 2404 2373 2390 2382 2383 2377 2370 2378 2379 2366 2361 2385 2364 2364 2355 2370 2378 2356 2369 2351 2357 2357 2354 2365 2361 2363 2352 2356 2360 2360 2345 2360 2348 2353 2348 2356 2343 2344 2358 2348 2342 2366 2347 2350 2361 2354 2348 2352 2351 2351 2355 2343 2348 2353 2358 2358 2353 2353 2349 2351 2363 2343 2350 2344 2349 2346 2350 2339 2343 2351 2356 2358 2358 2346 2349 2348 2344 2354 2349 2351 2343 2345 2345 2334 2349 2352 2347 2355 2352 2353 2372 2341 2352 2330 2355 2348 2373 2360 2373 2350 2380 2374 2392
0 0 0 0 0 2538 2464 2407 2407 2411 2398 2404 2393 2396 2389 2403 2404 2377 2373 2389 2389 2394 2388 2377 2374 2371 2384 2373 2382 2368 2367 2362 2363 2358 2360 2362 2366 2357 2358 2353 2359 2358 2355 2350 2363 2352 2358 2353 2349 2360 2359 2354 2344 2342 2340 2345 2354 2347 2351 2356 2352 2351 2352 2356 2352 2356 2352 2345 2349 2354 2348 2343 2347 2342 2354 2345 2332 2352 2352 2340 2354 2351 2358 2368 2352 2348 2347 2344 2341 2349 2357 2343 2336 2342 2349 2350 2352 2350 2349 2337 2331 2354 2355 2341 2352 2355 2349 2354 2347 2348 2348 2367 2353 2356 2360 2355 2370 2362 2388 2396
0 0 0 0 2513 2496 2457 2405 2447 2392 2405 2403 2401 2388 2395 2398 2389 2387 2380 2387 2385 2383 2377 2382 2377 2392 2358 2368 2377 2372 2367 2364 2369 2360 2363 2372 2361 2369 2369 2364 2351 2367 2358 2357 2345 2362 2364 2360 2357 2358 2352 2350 2367 2354 2346 2361 2355 2340 2349 2356 2341 2350 2351 2344 2355 2353 2348 2355 2345 2349 2352 2362 2352 2341 2351 2357 2345 2357 2355 2357 2344 2353 2345 2350 2357 2357 2338 2351 2365 2358 2340 2337 2354 2349 2354 2345 2349 2351 2342 2355 2358 2357 2344 2356 2351 2360 2358 2356 2360 2342 2342 2365 2362 2339 2359 2369 2357 2363 2355 2366
0 0 0 0 2527 2530 2460 2455 2416 2413 2418 2389 2399 2395 2383 2384 2397 2378 2389 2390 2405 2383 2377 2381 2383 2379 2369 2366 2371 2377 2375 2383 2367 2365 2368 2354 2370 2367 2367 2353 2371 2367 2373 2369 2359 2361 2362 2369 2366 2359 2349 2362 2361 2360 2360 2362 2347 2356 2351 2354 2349 2365 2351 2349 2349 2357 2368 2361 2354 2361 2364 2357 2359 2355 2356 2351 2363 2352 2344 2352 2360 2357 2353 2360 2348 2353 2353 2345 2359 2362 2349 2351 2349 2342 2355 2332 2354 2351 2347 2352 2346 2352 2364 2356 2356 2338 2353 2355 2359 2355 2335 2355 2352 2371 2357 2371 2352 2362 2391 2379
0 0 0 0 2495 2471 2413 2416 2385 2380 2392 2376 2396 2375 2391 2378 2385 2376 2368 2376 2372 2371 2367 2369 2382 2372 2366 2356 2369 2357 2366 2369 2356 2358 2366 2361 2365 2357 2352 2345 2354 2358 2354 2348 2355 2354 2357 2343 2346 2344 2353 2357 2351 2343 2347 2342 2347 2356 2356 2345 2339 2345 2346 2354 2353 2348 2352 2348 2350 2349 2354 2342 2355 2352 2353 2344 2344 2348 2350 2351 2348 2352 2356 2344 2341 2339 2340 2333 2340 2345 2346 2341 2345 2338 2346 2346 2353 2343 2348 2325 2328 2346 2337 2329 2330 2336 2348 2341 2345 2342 2342 2340 2352 2343 2349 2351 2345 2362 2355 2390
0 0 0 2527 2544 2455 2492 2423 2415 2394 2401 2397 2406 2392 2384 2400 2390 2390 2380 2397 2397 2399 2383 2375 2381 2374 2387 2389 2372 2371 2377 2376 2367 2371 2370 2364 2364 2369 2366 2374 2362 2361 2365 2362 2360 2355 2357 2365 2358 2359 2361 2358 2353 2355 2357 2354 2361 2366 2358 2355 2357 2358 2362 2352 2353 2358 2346 2361 2352 2363 2361 2347 2366 2358 2349 2354 2362 2359 2363 2352 2342 2361 2362 2352 2350 2360 2360 2350 2344 2363 2352 2348 2353 2352 2362 2348 2357 2335 2340 2353 2353 2358 2338 2357 2348 2360 2366 2366 2358 2373 2348 2345 2352 2351 2354 2353 2370 2368 2359 2375
0 0 0 2573 2468 2471 2429 2428 2403 2400 2405 2386 2387 2390 2401 2387 2401 2392 2381 2376 2390 2382 2385 2383 2381 2378 2379 2367 2359 2374 2360 2364 2359 2362 2361 2362 2362 2371 2364 2364 2369 2373 2358 2356 2362 2354 2361 2356 2346 2351 2365 2359 2355 2362 2355 2356 2359 2357 2356 2357 2356 2348 2355 2351 2356 2354 2356 2347 2354 2343 2356 2348 2348 2346 2346 2352 2360 2357 2368 2352 2351 2357 2352 2351 2345 2351 2346 2360 2345 2337 2336 2352 2343 2340 2349 2346 2347 2354 2348 2345 2356 2344 2343 2350 2342 2359 2362 2361 2354 2353 2348 2354 2355 2350 2371 2362 2377 2375 2365 2390
0 0 0 0 2441 2420 2422 2403 2405 2382 2400 2395 2400 2385 2391 2381 2384 2387 2387 2379 2394 2369 2380 2372 2377 2376 2367 2377 2372 2373 2365 2362 2376 2366 2372 2368 2372 2360 2364 2359 2367 2359 2367 2363 2374 2363 2355 2361 2357 2359 2358 2356 2357 2355 2357 2355 2356 2359 2361 2358 2363 2351 2362 2351 2353 2357 2349 2351 2355 2366 2354 2347 2351 2356 2349 2363 2350 2357 2368 2353 2354 2344 2349 2359 2350 2357 2350 2348 2347 2350 2344 2351 2349 2346 2340 2344 2338 2341 2336 2347 2336 2351 2342 2342 2344 2346 2341 2350 2346 2347 2351 2347 2356 2348 2355 2344 2348 2359 2358 2370
0 0 0 2513 2477 2433 2435 2399 2389 2403 2395 2396 2401 2382 2391 2404 2381 2385 2385 2386 2382 2388 2379 2377 2372 2371 2372 2361 2368 2382 2371 2368 2364 2371 2363 2374 2361 2353 2364 2376 2375 2368 2361 2360 2361 2364 2362 2355 2363 2363 2355 2365 2367 2357 2351 2359 2356 2358 2358 2353 2351 2357 2355 2357 2348 2364 2353 2348 2360 2352 2359 2361 2366 2354 2354 2357 2351 2361 2355 2353 2350 2348 2350 2343 2354 2353 2347 2353 2350 2343 2352 2346 2354 2343 2355 2345 2345 2340 2344 2349 2345 2347 2358 2342 2342 2346 2365 2355 2360 2346 2344 2356 2352 2345 2366 2362 2360 2357 2377 2376
0 0 0 2454 2438 2421 2413 2397 2391 2396 2399 2394 2413 2379 2388 2389 2384 2383 2386 2361 2385 2382 2388 2386 2364 2378 2384 2361 2369 2364 2372 2376 2367 2368 2358 2361 2364 2365 2354 2361 2360 2362 2362 2361 2355 2361 2367 2360 2358 2355 2357 2364 2352 2350 2347 2360 2356 2354 2359 2353 2359 2354 2356 2351 2354 2358 2352 2349 2347 2353 2354 2347 2355 2360 2357 2357 2346 2358 2352 2353 2358 2352 2348 2345 2343 2351 2352 2359 2336 2343 2358 2351 2353 2348 2350 2349 2352 2356 2339 2345 2345 2343 2346 2350 2343 2351 2350 2367 2353 2349 2352 2358 2343 2363 2365 2352 2360 2355 2360 2373
0 0 2582 2517 2459 2457 2456 2450 2448 2415 2416 2420 2403 2407 2390 2408 2395 2399 2391 2394 2416 2395 2384 2386 2387 2379 2385 2373 2372 2379 2369 2370 2382 2375 2356 2365 2369 2370 2376 2375 2370 2367 2366 2364 2376 2371 2363 2364 2373 2366 2360 2368 2370 2361 2358 2360 2361 2361 2356 2368 2362 2366 2365 2356 2364 2360 2357 2363 2366 2363 2361 2367 2362 2363 2360 2361 2362 2373 2362 2362 2354 2360 2362 2352 2360 2351 2357 2350 2365 2349 2365 2352 2363 2354 2340 2355 2362 2351 2356 2356 2365 2368 2359 2366 2350 2354 2375 2371 2353 2350 2363 2360 2366 2371 2368 2375 2377 2368 2392 2393
0 0 2483 2440 2423 2426 2412 2412 2417 2408 2386 2395 2402 2379 2381 2384 2376 2384 2382 2396 2390 2387 2384 2390 2392 2376 2372 2379 2368 2380 2379 2371 2375 2361 2368 2366 2355 2363 2364 2362 2363 2354 2355 2368 2373 2362 2357 2366 2364 2363 2353 2367 2361 2357 2359 2362 2351 2355 2365 2361 2358 2354 2363 2351 2358 2354 2352 2356 2354 2364 2347 2359 2349 2357 2355 2355 2350 2354 2348 2347 2353 2354 2350 2352 2348 2344 2347 2349 2352 2348 2336 2356 2352 2355 2347 2349 2354 2351 2341 2344 2338 2337 2347 2342 2343 2346 2334 2358 2353 2344 2351 2343 2347 2345 2341 2349 2362 2384 2363 2381
0 0 2439 2430 2423 2411 2446 2407 2397 2401 2415 2401 2399 2398 2394 2386 2389 2384 2382 2379 2404 2385 2377 2382 2384 2377 2368 2375 2382 2368 2380 2369 2367 2376 2372 2368 2365 2369 2369 2364 2362 2374 2369 2365 2364 2362 2368 2365 2371 2364 2363 2360 2360 2360 2363 2365 2369 2363 2361 2354 2358 2356 2355 2357 2358 2355 2368 2359 2349 2354 2351 2359 2357 2361 2355 2352 2366 2356 2356 2345 2351 2355 2358 2357 2354 2360 2356 2360 2337 2356 2335 2358 2357 2352 2348 2358 2356 2360 2347 2346 2349 2354 2354 2347 2361 2344 2369 2345 2350 2352 2356 2350 2356 2356 2366 2358 2376 2370 2359 2339
0 2573 2532 2462 2452 2443 2436 2420 2413 2382 2408 2387 2379 2388 2384 2406 2406 2396 2382 2390 2388 2385 2386 2379 2383 2383 2384 2366 2374 2373 2379 2371 2359 2370 2363 2361 2362 2373 2368 2366 2369 2364 2368 2360 2362 2366 2366 2361 2366 2373 2363 2366 2363 2358 2366 2361 2356 2361 2360 2356 2359 2359 2365 2358 2353 2356 2352 2355 2364 2360 2361 2348 2350 2351 2355 2355 2357 2365 2360 2350 2354 2346 2357 2353 2340 2353 2356 2344 2353 2353 2356 2346 2358 2354 2352 2356 2351 2348 2351 2342 2360 2350 2346 2344 2356 2352 2354 2357 2360 2352 2347 2354 2355 2353 2356 2355 2366 2364 2362 2380
0 2491 2488 2448 2475 2437 2453 2434 2405 2397 2395 2407 2382 2402 2385 2391 2394 2379 2391 2380 2398 2395 2378 2379 2380 2374 2379 2384 2373 2368 2368 2372 2363 2366 2368 2374 2372 2369 2363 2363 2367 2360 2367 2363 2364 2369 2368 2369 2360 2364 2367 2365 2370 2363 2366 2356 2365 2368 2360 2364 2355 2363 2361 2362 2363 2358 2361 2357 2364 2364 2363 2362 2360 2355 2368 2354 2369 2362 2353 2354 2350 2352 2351 2361 2359 2354 2353 2359 2344 2346 2362 2357 2347 2350 2343 2354 2349 2361 2352 2357 2353 2355 2362 2352 2348 2344 2370 2343 2357 2368 2344 2366 2348 2349 2348 2370 2360 2359 2366 2362
0 2505 2521 2478 2476 2416 2418 2428 2430 2406 2432 2397 2408 2393 2386 2395 2391 2407 2386 2395 2393 2380 2386 2383 2381 2389 2377 2382 2377 2370 2377 2371 2373 2368 2376 2375 2367 2382 2370 2365 2368 2367 2365 2366 2359 2358 2368 2357 2370 2376 2363 2372 2370 2362 2361 2367 2363 2358 2365 2365 2365 2367 2361 2356 2370 2361 2365 2364 2360 2364 2363 2364 2361 2355 2356 2360 2366 2362 2372 2354 2365 2357 2358 2355 2363 2349 2358 2357 2362 2353 2356 2355 2364 2355 2345 2355 2354 2358 2362 2361 2370 2351 2360 2351 2355 2361 2369 2360 2364 2352 2355 2371 2366 2375 2362 2373 2357 2364 2376 2366
0 0 2478 2443 2393 2437 2393 2400 2406 2399 2398 2389 2390 2394 2389 2386 2381 2393 2384 2394 2379 2370 2381 2382 2378 2369 2375 2363 2366 2364 2362 2360 2365 2358 2359 2363 2360 2368 2361 2367 2358 2362 2367 2360 2360 2367 2362 2358 2352 2361 2362 2359 2350 2359 2356 2355 2356 2362 2360 2351 2357 2356 2362 2360 2362 2364 2359 2357 2364 2360 2356 2359 2362 2353 2355 2355 2362 2359 2350 2352 2351 2353 2341 2349 2358 2358 2341 2349 2354 2340 2356 2348 2354 2347 2345 2354 2349 2351 2344 2354 2354 2350 2351 2338 2339 2343 2340 2347 2349 2346 2338 2358 2344 2337 2328 2336 2345 2348 2349 2342
0 2501 2482 2427 2463 2426 2435 2428 2400 2406 2396 2387 2402 2412 2382 2392 2391 2397 2391 2386 2384 2387 2385 2392 2389 2383 2387 2383 2373 2378 2378 2367 2375 2370 2373 2366 2372 2369 2369 2367 2366 2361 2371 2363 2370 2366 2349 2366 2370 2359 2357 2364 2358 2364 2365 2360 2350 2360 2366 2355 2365 2356 2368 2360 2364 2358 2360 2369 2363 2357 2361 2366 2364 2362 2360 2360 2368 2365 2366 2359 2353 2351 2358 2354 2354 2357 2358 2357 2348 2349 2356 2358 2352 2354 2351 2358 2350 2359 2359 2352 2347 2352 2344 2343 2342 2363 2359 2348 2359 2350 2346 2366 2359 2346 2356 2346 2362 2362 2360 2348
0 2501 2427 2459 2452 2418 2425 2435 2412 2411 2405 2416 2413 2395 2401 2375 2399 2396 2375 2385 2393 2403 2388 2388 2385 2387 2383 2377 2370 2376 2374 2368 2361 2369 2362 2367 2362 2379 2359 2366 2375 2367 2365 2365 2361 2367 2364 2364 2374 2362 2354 2362 2367 2364 2360 2361 2358 2365 2358 2362 2365 2366 2357 2362 2364 2371 2367 2366 2366 2361 2370 2357 2369 2356 2362 2369 2367 2367 2363 2355 2368 2358 2363 2353 2354 2350 2359 2348 2360 2350 2360 2359 2350 2347 2353 2360 2345 2352 2354 2357 2361 2351 2353 2350 2344 2353 2356 2363 2356 2356 2352 2352 2360 2360 2353 2363 2361 2365 2372 2366
0 2480 2409 2409 2431 2452 2451 2398 2417 2407 2388 2413 2396 2387 2393 2391 2375 2395 2393 2378 2396 2382 2396 2380 2378 2376 2383 2371 2376 2380 2368 2379 2365 2381 2369 2370 2375 2368 2370 2373 2375 2370 2372 2365 2363 2380 2364 2368 2371 2378 2364 2368 2361 2363 2361 2363 2368 2359 2362 2358 2368 2360 2358 2363 2364 2370 2369 2360 2368 2367 2371 2365 2364 2355 2363 2363 2361 2368 2361 2363 2361 2350 2354 2360 2360 2352 2356 2355 2370 2364 2358 2356 2355 2350 2357 2355 2351 2354 2364 2352 2351 2353 2345 2344 2346 2355 2338 2352 2354 2349 2361 2351 2361 2337 2357 2357 2349 2357 2365 2357
0 2500 2472 2450 2394 2450 2433 2430 2421 2393 2393 2391 2396 2383 2388 2386 2392 2387 2391 2380 2410 2385 2385 2382 2386 2387 2394 2373 2385 2376 2380 2370 2372 2380 2376 2367 2373 2367 2363 2369 2367 2369 2369 2368 2362 2374 2363 2368 2372 2375 2362 2363 2359 2369 2361 2358 2363 2358 2365 2362 2365 2366 2361 2360 2360 2365 2362 2368 2357 2362 2365 2360 2369 2363 2364 2353 2371 2373 2358 2362 2360 2357 2351 2356 2359 2354 2360 2358 2360 2358 2357 2352 2347 2349 2358 2349 2362 2355 2357 2358 2343 2352 2351 2347 2356 2348 2345 2347 2348 2351 2352 2352 2349 2342 2364 2366 2351 2341 2363 2393
0 2475 2474 2450 2419 2436 2434 2400 2423 2395 2403 2395 2395 2378 2392 2388 2375 2379 2376 2365 2377 2381 2384 2381 2379 2376 2381 2371 2366 2369 2367 2370 2371 2360 2366 2378 2378 2367 2365 2373 2370 2368 2372 2371 2365 2364 2356 2360 2368 2367 2358 2360 2365 2365 2359 2367 2367 2359 2361 2356 2359 2357 2363 2364 2361 2358 2358 2363 2374 2363 2365 2371 2374 2369 2367 2362 2358 2359 2360 2353 2356 2356 2352 2346 2359 2350 2362 2356 2351 2351 2345 2355 2351 2353 2358 2347 2352 2348 2353 2353 2352 2343 2342 2343 2350 2357 2348 2350 2342 2347 2347 2348 2347 2344 2347 2346 2353 2357 2352 2369
0 0 2466 2480 2448 2435 2436 2421 2415 2418 2410 2396 2404 2400 2389 2399 2400 2400 2392 2406 2406 2403 2397 2393 2389 2373 2384 2380 2391 2377 2372 2374 2381 2373 2378 2379 2377 2369 2371 2368 2368 2364 2375 2362 2362 2369 2373 2369 2372 2364 2369 2370 2370 2370 2356 2367 2367 2365 2366 2358 2364 2354 2366 2364 2361 2362 2370 2357 2364 2371 2370 2365 2366 2367 2369 2363 2370 2366 2370 2362 2362 2359 2361 2361 2362 2365 2354 2358 2356 2356 2354 2358 2362 2363 2356 2355 2356 2354 2360 2354 2355 2357 2367 2353 2356 2356 2367 2351 2366 2352 2367 2347 2369 2360 2365 2345 2366 2361 2373 2393
0 0 0 2505 0 2429 2452 2430 2428 2427 2429 2412 2416 2414 2399 2412 2409 2406 2401 2404 2398 2397 2387 2380 2399 2386 2382 2385 2391 2380 2384 2374 2369 2368 2360 2378 2376 2366 2365 2372 2365 2359 2366 2369 2368 2376 2372 2371 2365 2376 2369 2365 2361 2361 2366 2366 2366 2367 2368 2361 2362 2364 2368 2370 2361 2371 2362 2354 2363 2368 2364 2361 2368 2362 2360 2365 2365 2365 2361 2360 2361 2365 2360 2362 2360 2364 2355 2358 2357 2360 2356 2351 2354 2362 2360 2356 2364 2354 2359 2363 2354 2356 2348 2350 2359 2345 2369 2357 2354 2351 2358 2359 2356 2356 2355 2369 2368 2366 2366 2370
0 0 0 0 2493 2403 2454 2443 2442 2413 2420 2413 2421 2392 2419 2411 2397 2415 2394 2395 2396 2392 2401 2384 2389 2390 2384 2387 2388 2384 2373 2387 2377 2381 2374 2376 2379 2372 2375 2375 2377 2362 2375 2375 2378 2368 2368 2368 2363 2382 2373 2371 2370 2370 2366 2377 2369 2365 2370 2366 2364 2359 2372 2363 2368 2369 2363 2373 2362 2375 2364 2369 2359 2360 2368 2361 2369 2367 2366 2366 2367 2367 2364 2360 2365 2362 2360 2351 2358 2360 2369 2363 2367 2356 2358 2355 2356 2354 2361 2365 2351 2352 2349 2352 2347 2353 2367 2354 2345 2349 2356 2361 2356 2353 2359 2341 2350 2368 2358 2359
0 0 0 0 0 0 0 0 0 0 0 0 2624 2681 2556 2524 2501 2468 2402 2394 2404 2383 2390 2385 2403 2374 2382 2388 2386 2384 2376 2382 2374 2381 2381 2375 2374 2371 2380 2388 2379 2370 2373 2379 2378 2373 2370 2369 2367 2371 2367 2372 2374 2374 2376 2378 2368 2374 2366 2371 2374 2370 2368 2374 2369 2373 2367 2365 2365 2374 2370 2369 2375 2371 2375 2371 2372 2373 2364 2369 2363 2373 2363 2363 2356 2365 2359 2363 2361 2363 2357 2367 2368 2355 2363 2360 2360 2353 2354 2364 2361 2360 2360 2350 2355 2361 2351 2364 2371 2362 2361 2355 2360 2353 2360 2367 2359 2375 2375 2387
0 0 0 0 0 0 0 2516 2479 2447 2415 2423 2452 2448 2418 2413 2421 2421 2392 2392 2401 2399 2384 2374 2388 2380 2385 2380 2378 2383 2365 2368 2383 2379 2366 2373 2375 2371 2370 2373 2365 2369 2361 2370 2371 2369 2374 2367 2367 2368 2363 2367 2356 2356 2360 2369 2359 2373 2370 2368 2367 2364 2371 2366 2354 2365 2370 2364 2366 2365 2371 2366 2367 2363 2369 2359 2368 2366 2366 2364 2361 2360 2365 2366 2375 2356 2357 2362 2363 2368 2365 2369 2365 2369 2354 2350 2365 2358 2362 2360 2356 2356 2360 2370 2373 2354 2345 2354 2363 2372 2354 2367 2370 2363 2359 2380 2362 2347 2385 2375
0 0 0 0 0 0 0 0 0 0 0 0 0 0 0 0 2544 2522 2475 2429 2414 2410 2398 2392 2396 2404 2390 2387 2394 2392 2374 2380 2385 2386 2387 2377 2373 2382 2382 2370 2376 2382 2377 2376 2370 2374 2374 2380 2381 2377 2374 2371 2376 2369 2379 2372 2378 2376 2372 2370 2373 2380 2376 2376 2370 2369 2376 2365 2367 2368 2374 2366 2371 2370 2377 2369 2374 2375 2377 2376 2381 2387 2396 2382 2384 2374 2373 2379 2380 2383 2386 2373 2378 2371 2371 2375 2378 2367 2363 2373 2383 2377 2373 2377 2375 2384 2380 2376 2371 2379 2371 2389 2382 2378 2382 2376 2392 2402 2421 2381
0 0 0 0 0 0 0 2734 2683 2638 2625 2543 2551 2599 0 2558 2564 2524 2535 2434 2389 2387 2394 2388 2375 2378 2388 2393 2381 2375 2380 2388 2382 2376 2380 2370 2369 2375 2382 2369 2370 2368 2370 2382 2368 2368 2370 2366 2373 2368 2366 2373 2368 2375 2365 2375 2369 2367 2366 2364 2375 2363 2365 2359 2363 2372 2369 2359 2360 2374 2376 2366 2373 2371 2367 2366 2374 2367 2372 2369 2373 2378 2370 2369 2368 2386 2378 2389 2388 2360 2393 2375 2372 2379 2404 2396 2418 2389 2382 2399 2425 2400 2420 2426 2380 2371 2389 2396 2372 2396 2400 2389 2405 2377 2426 2431 2432 2381 2396 2408
0 0 0 2728 2648 2662 2649 2594 2546 2553 2571 2515 2520 2537 2508 2506 2530 2490 2492 2448 2408 2407 2398 2376 2391 2391 2388 2378 2387 2380 2378 2371 2369 2366 2377 2379 2371 2381 2378 2377 2378 2373 2376 2372 2373 2379 2378 2378 2375 2371 2365 2367 2368 2365 2377 2364 2375 2376 2368 2372 2377 2368 2369 2363 2371 2368 2368 2369 2371 2366 2369 2364 2359 2372 2366 2376 2376 2380 2384 2403 2400 2387 2385 2381 2383 2381 2380 2369 2394 2381 2380 2373 2388 2380 2373 2367 2363 2370 2360 2361 2374 2352 2374 2367 2351 2364 2373 2364 2372 2361 2369 2387 2378 2384 2390 2365 2395 2430 2368 2436
0 0 0 0 0 0 0 2662 2623 2534 2604 2545 2518 2523 2532 2522 2511 2502 2499 2436 2394 2395 2398 2396 2394 2393 2388 2384 2388 2379 2376 2377 2379 2370 2378 2372 2379 2373 2379 2360 2375 2373 2371 2373 2370 2374 2373 2376 2369 2370 2370 2372 2372 2364 2370 2363 2375 2363 2366 2366 2368 2366 2376 2375 2377 2365 2364 2364 2362 2371 2362 2371 2364 2377 2368 2367 2374 2386 2438 2451 2457 2451 2454 2453 2470 2445 2446 2451 2447 2468 2434 2464 2445 2455 2486 2443 2436 2437 2429 2440 2473 2444 2483 2432 2457 2473 2437 2420 2477 2472 2471 2474 2498 2492 0 2509 0 0 0 0
0 0 0 2686 2654 2614 2683 2558 2544 2572 2544 2503 2527 2498 2529 2512 2500 2493 2501 2423 2402 2391 2391 2383 2385 2387 2380 2391 2380 2379 2381 2372 2378 2379 2374 2380 2372 2378 2371 2375 2368 2377 2374 2371 2379 2370 2373 2366 2372 2365 2366 2367 2367 2367 2371 2367 2376 2374 2373 2366 2363 2373 2363 2367 2371 2361 2369 2357 2358 2363 2365 2365 2372 2365 2364 2369 2374 2409 2448 2455 2459 2451 2453 2443 2441 2436 2443 2454 2448 2449 2443 2450 2453 2440 2452 2446 2467 2442 2451 2439 2454 2451 2454 2440 2456 2439 2469 2444 2478 2445 2440 2477 2477 2478 2509 2441 2508 0 0 0
0 0 0 0 0 0 2685 2598 2581 2559 2582 2529 2540 2555 2545 2524 2507 2514 2505 2451 2400 2397 2391 2395 2388 2395 2391 2381 2395 2384 2376 2377 2384 2379 2383 2378 2371 2375 2367 2382 2382 2382 2379 2372 2372 2373 2371 2373 2382 2372 2377 2369 2377 2365 2368 2375 2379 2374 2375 2366 2372 2364 2379 2372 2368 2371 2364 2372 2358 2369 2371 2368 2373 2370 2377 2377 2373 2399 2446 2440 2460 2449 2448 2468 2450 2457 2462 2460 2455 2460 2452 2454 2461 2460 2464 2469 2461 2459 2462 2464 2458 2458 2461 2455 2450 2462 2463 2461 2454 2448 2452 2474 2464 2449 2450 2462 2467 2482 2496 2547
0 0 0 0 0 0 0 0 0 0 0 2619 2604 2512 0 2614 2500 2505 2492 2400 2390 2385 2386 2377 2381 2375 2378 2392 2378 2375 2371 2373 2369 2368 2372 2366 2365 2377 2368 2376 2373 2377 2371 2364 2373 2375 2372 2372 2371 2381 2366 2360 2364 2361 2367 2371 2366 2371 2375 2369 2361 2372 2368 2363 2366 2362 2361 2358 2363 2369 2358 2367 2368 2364 2360 2364 2366 2393 2434 2445 2430 2433 2433 2447 2427 2419 2428 2445 2429 2414 2426 2424 2420 2438 2429 2425 2433 2421 2450 2411 2417 2440 2418 2437 2438 2422 2420 2448 2436 2430 2428 2422 2470 2415 2455 2437 2455 2439 2489 2474
0 0 0 0 0 0 0 0 0 0 0 0 0 0 0 0 2605 2510 0 2421 2404 2401 2389 2391 2400 2390 2384 2391 2382 2394 2378 2371 2371 2375 2379 2374 2381 2382 2374 2373 2371 2364 2376 2384 2377 2371 2379 2367 2377 2372 2368 2365 2366 2373 2366 2379 2368 2372 2367 2371 2369 2369 2372 2373 2372 2370 2361 2362 2373 2366 2364 2364 2368 2366 2382 2372 2370 2419 2446 2457 2467 2444 2450 2441 2452 2458 2457 2455 2455 2464 2436 2458 2448 2456 2436 2443 2457 2452 2463 2443 2454 2448 2444 2447 2449 2461 2451 2436 2454 2438 2446 2488 2466 2466 2474 2470 2447 2512 2498 2531
0 0 0 0 0 0 0 2729 2683 2670 0 2597 2589 2602 0 2568 2543 2570 2584 2427 2402 2389 2386 2392 2386 2400 2392 2389 2384 2392 2378 2375 2372 2385 2372 2382 2364 2378 2372 2362 2381 2372 2365 2377 2378 2383 2374 2375 2379 2381 2376 2363 2370 2366 2377 2379 2366 2357 2376 2363 2370 2366 2368 2371 2367 2369 2368 2363 2373 2363 2374 2373 2377 2363 2367 2364 2371 2411 2473 2479 2473 2469 2454 2468 2468 2473 2461 2453 2459 2458 2457 2455 2457 2449 2463 2463 2470 2464 2473 2472 2462 2466 2454 2462 2470 2468 2460 2446 2456 2471 2459 2486 2455 2457 2432 2481 2478 2463 2492 2488
0 0 0 2682 2707 2742 2713 2653 2560 2541 2543 2526 2522 2531 2558 2519 2514 2507 2520 2432 2403 2393 2398 2384 2404 2383 2384 2393 2382 2388 2380 2387 2367 2386 2384 2377 2381 2384 2373 2386 2377 2378 2378 2376 2380 2373 2371 2382 2381 2370 2377 2365 2370 2374 2372 2367 2360 2368 2372 2357 2368 2369 2368 2375 2366 2372 2366 2371 2366 2374 2379 2373 2373 2375 2367 2370 2375 2395 2442 2432 2449 2441 2454 2464 2451 2466 2465 2476 2450 2450 2474 2469 2454 2449 2453 2464 2473 2464 2481 2459 2473 2467 2472 2468 2490 2495 2496 2468 2485 2498 2459 2503 2497 2517 2539 2509 2504 2619 0 0
0 0 0 0 2749 2718 0 2620 2592 2592 2589 2547 2558 2554 2563 2526 2533 2514 2503 2439 2410 2409 2391 2392 2383 2389 2386 2395 2387 2394 2386 2382 2374 2387 2378 2371 2377 2384 2372 2378 2378 2377 2378 2386 2376 2374 2375 2383 2382 2377 2374 2377 2374 2367 2377 2372 2368 2368 2374 2377 2372 2366 2369 2370 2375 2369 2369 2369 2376 2374 2369 2373 2368 2377 2373 2377 2386 2408 2462 2464 2475 2455 2463 2474 2448 2452 2461 2468 2461 2467 2461 2467 2466 2492 2488 2471 2473 2478 2474 2484 2506 2474 2473 2435 2469 2485 2459 2472 2469 2485 2479 2559 2546 2494 0 0 0 0 0 0
0 0 0 0 2683 2681 2724 2646 2623 2574 2570 2537 2530 2542 2574 2519 2500 2521 2473 2423 2391 2391 2394 2386 2389 2397 2381 2389 2389 2385 2381 2378 2381 2363 2383 2376 2378 2387 2379 2373 2367 2380 2367 2371 2373 2378 2370 2370 2374 2371 2366 2371 2364 2373 2365 2374 2367 2366 2360 2363 2366 2368 2365 2352 2368 2369 2367 2368 2362 2367 2364 2368 2367 2376 2369 2380 2369 2419 2449 2447 2452 2458 2441 2449 2455 2456 2457 2452 2456 2457 2451 2450 2445 2457 2452 2458 2449 2448 2456 2458 2451 2463 2445 2456 2462 2452 2462 2458 2454 2468 2459 2470 2451 2498 2466 2479 2520 2509 2496 0
0 0 0 0 0 0 0 0 2705 2661 2707 2626 2580 2545 2666 2561 2556 2531 2541 2443 2406 2396 2392 2388 2394 2399 2398 2390 2386 2390 2379 2388 2385 2380 2379 2386 2384 2375 2377 2374 2381 2384 2384 2383 2378 2381 2383 2381 2383 2373 2375 2376 2371 2369 2376 2372 2373 2375 2376 2372 2367 2378 2364 2368 2370 2381 2361 2372 2370 2365 2373 2373 2380 2370 2378 2379 2372 2408 2444 2461 2450 2449 2447 2455 2452 2460 2477 2454 2462 2455 2471 2455 2431 2466 2472 2464 2467 2459 2472 2466 2457 2450 2479 2472 2466 2468 2481 2465 2468 2444 2461 2474 2461 2473 2493 2492 2474 2496 2479 2557
0 0 0 0 0 0 0 0 0 0 0 0 0 0 0 0 0 2570 0 2440 2402 2395 2387 2395 2398 2393 2399 2390 2388 2386 2381 2388 2383 2385 2390 2382 2386 2383 2376 2380 2376 2384 2382 2380 2376 2379 2381 2390 2383 2381 2377 2369 2377 2370 2373 2379 2381 2372 2368 2375 2370 2367 2372 2369 2374 2371 2372 2377 2369 2373 2366 2371 2375 2375 2381 2378 2381 2436 2444 2455 2454 2444 2444 2442 2445 2444 2452 2437 2459 2444 2448 2453 2435 2450 2460 2452 2456 2432 2467 2451 2470 2460 2442 2447 2480 2433 2451 2448 2442 2453 2471 2461 2487 2491 2463 2507 2523 2463 2518 2588
0 0 0 0 0 0 0 0 0 0 0 0 0 0 0 0 0 2581 0 2423 2402 2399 2406 2393 2384 2398 2388 2396 2378 2396 2387 2388 2396 2385 2388 2383 2379 2387 2379 2380 2377 2371 2380 2379 2382 2380 2382 2383 2388 2373 2373 2374 2381 2372 2381 2370 2377 2375 2371 2380 2376 2368 2377 2371 2378 2370 2366 2376 2377 2380 2382 2376 2374 2375 2367 2375 2374 2434 2472 2461 2460 2474 2455 2461 2453 2451 2444 2462 2462 2452 2456 2453 2454 2455 2465 2455 2445 2452 2463 2457 2455 2454 2449 2481 2464 2451 2458 2465 2454 2465 2465 2457 2465 2450 2502 2467 2476 2495 2512 2503
0 0 0 2760 2780 2766 2705 2634 2586 2594 2644 2568 2563 2558 2644 2527 2574 2541 2555 2405 2400 2395 2388 2390 2392 2389 2400 2374 2382 2388 2381 2383 2383 2390 2384 2387 2383 2385 2385 2384 2382 2378 2379 2380 2370 2377 2384 2381 2382 2378 2384 2376 2375 2381 2372 2373 2380 2381 2372 2373 2373 2366 2367 2369 2373 2371 2376 2372 2359 2366 2371 2372 2376 2368 2371 2371 2378 2414 2452 2488 2460 2460 2449 2465 2465 2459 2472 2463 2481 2473 2463 2492 2476 2462 2467 2480 2486 2455 2466 2469 2454 2462 2502 2477 2466 2458 2473 2466 2463 2462 2474 2484 2461 2471 2471 2496 2479 2511 2544 2539
0 0 0 2735 2721 2675 2735 2614 2582 2589 2605 2562 2547 2541 2603 2533 2519 2525 2527 2433 2410 2402 2411 2389 2395 2388 2389 2402 2387 2390 2379 2379 2392 2390 2378 2383 2384 2380 2380 2386 2379 2382 2377 2380 2387 2382 2379 2380 2378 2381 2380 2371 2376 2386 2373 2372 2374 2371 2370 2379 2373 2378 2367 2374 2377 2377 2377 2370 2373 2378 2373 2380 2364 2373 2375 2366 2380 2420 2451 2445 2471 2466 2463 2481 2458 2437 2467 2457 2473 2443 2472 2470 2492 2420 2471 2489 2494 2498 2466 2469 2445 2458 2474 2522 2494 2483 2455 2494 2467 2459 0 0 2514 0 0 0 0 0 0 0
0 0 0 0 0 0 0 2638 2675 2617 2711 2588 2571 2574 2624 2534 2549 2548 2654 2437 2410 2409 2411 2408 2404 2407 2399 2395 2401 2381 2392 2386 2392 2379 2383 2389 2397 2384 2390 2396 2386 2385 2390 2380 2387 2390 2376 2387 2381 2381 2375 2376 2388 2375 2376 2379 2382 2375 2375 2378 2383 2375 2378 2377 2372 2373 2364 2380 2378 2375 2374 2375 2374 2383 2381 2380 2396 2448 2479 2471 2474 2462 2461 2464 2483 2463 2483 2479 2486 2479 2478 2478 2502 2490 2507 2488 2496 2494 2473 2498 2513 2477 2520 2498 2510 2506 2497 2502 2509 2535 2553 2530 0 0 0 0 0 0 0 0
0 0 0 2702 2684 2769 0 2639 2600 2559 2617 2567 2564 2573 2600 2524 2547 2520 2526 2437 2411 2405 2410 2395 2406 2399 2395 2392 2401 2380 2387 2383 2393 2387 2384 2386 2382 2374 2385 2386 2380 2385 2382 2378 2381 2384 2381 2380 2385 2377 2380 2380 2378 2381 2377 2376 2381 2379 2375 2369 2375 2380 2378 2382 2371 2373 2373 2373 2371 2376 2381 2374 2383 2376 2374 2377 2386 2434 2459 2458 2459 2459 2464 2462 2462 2452 2469 2467 2458 2463 2462 2457 2458 2464 2464 2451 2471 2458 2448 2444 2470 2476 2451 2453 2470 2471 2487 2473 2470 2461 2479 2462 2485 2474 2490 2523 2510 2504 2547 2596
0 0 0 0 0 0 0 2783 2700 2610 2688 2635 2565 2545 2600 2556 2553 2532 2538 2424 2403 2397 2399 2400 2409 2395 2401 2398 2396 2400 2384 2394 2388 2394 2395 2385 2386 2386 2380 2379 2383 2382 2384 2382 2389 2380 2380 2386 2381 2379 2387 2388 2383 2382 2379 2378 2378 2381 2384 2371 2369 2367 2370 2377 2379 2385 2373 2373 2372 2380 2373 2373 2371 2382 2376 2386 2386 2440 2467 2474 2453 2430 2450 2448 2439 2451 2453 2467 2447 2447 2449 2458 2467 2436 2461 2464 2473 2470 2476 2457 2466 2464 2470 2467 2457 2477 2473 2449 2452 2477 2467 2468 2473 2464 2480 2459 2469 2468 2499 2531
0 0 0 0 0 0 0 0 0 0 0 0 0 0 0 0 0 0 0 2448 2417 2413 2402 2408 2401 2404 2406 2403 2387 2400 2388 2389 2393 2390 2393 2393 2385 2379 2375 2390 2381 2391 2390 2388 2388 2375 2383 2386 2381 2385 2373 2384 2388 2382 2379 2364 2380 2382 2380 2374 2369 2374 2370 2375 2382 2376 2379 2378 2377 2371 2379 2372 2384 2376 2374 2375 2393 2452 2461 2460 2467 2458 2468 2458 2470 2473 2470 2463 2456 2470 2458 2464 2469 2460 2453 2479 2462 2461 2465 2472 2417 2496 2466 2461 2459 2447 2445 2466 2480 2492 2467 2458 2522 2520 2522 2463 2508 2527 2515 0
0 0 0 0 0 0 0 0 0 0 0 0 0 0 0 0 0 0 0 2407 2411 2414 2389 2405 2409 2397 2392 2399 2402 2387 2394 2383 2389 2390 2385 2390 2384 2382 2382 2393 2383 2388 2382 2385 2387 2382 2383 2378 2372 2387 2383 2377 2364 2383 2377 2376 2375 2370 2371 2371 2372 2371 2386 2380 2377 2368 2371 2374 2379 2365 2371 2372 2366 2377 2375 2373 2391 2448 2464 2460 2471 2459 2466 2478 2467 2462 2458 2457 2465 2468 2465 2461 2471 2447 2461 2473 2467 2456 2475 2456 2452 2470 2460 2471 2467 2463 2459 2458 2465 2457 2450 2468 2456 2442 2456 2475 2449 2462 2541 2535
0 0 0 0 0 0 0 0 2554 2533 2522 2522 2537 2468 2498 2484 2444 2430 2418 2447 2420 2408 2404 2409 2413 2398 2397 2402 2394 2402 2394 2401 2393 2380 2402 2387 2389 2381 2400 2392 2386 2384 2392 2390 2395 2384 2382 2393 2393 2381 2379 2380 2382 2379 2374 2373 2384 2384 2371 2389 2376 2375 2378 2381 2375 2382 2380 2378 2384 2381 2376 2379 2394 2386 2379 2379 2379 2445 2505 2471 2480 2503 2483 2517 2471 2497 2489 2488 2489 2488 2476 2510 2505 2479 2472 2492 2512 2485 2484 2503 2489 2504 2473 2495 2496 2480 2464 2480 2465 2459 2453 2495 2516 2506 2532 2471 2513 2497 2560 2541
0 0 0 0 0 0 0 0 0 0 0 2636 2759 2662 0 0 0 2467 2420 2412 2406 2414 2400 2397 2413 2402 2395 2386 2385 2388 2387 2392 2391 2388 2391 2381 2385 2390 2385 2383 2383 2391 2388 2388 2382 2391 2381 2395 2386 2385 2384 2377 2382 2389 2384 2372 2375 2372 2381 2384 2370 2381 2382 2379 2378 2374 2377 2378 2379 2366 2371 2379 2378 2375 2376 2381 2368 2405 2408 2405 2426 2413 2404 2423 2429 2432 2436 2461 2439 2421 2470 2428 2476 2436 2451 2474 2476 2421 2429 2500 2486 2482 0 2451 2460 2508 2426 2494 2459 2456 0 2482 0 0 0 0 0 0 0 0
0 0 0 0 2608 2536 2535 2498 2471 2445 2462 2466 2453 2440 2448 2440 2437 2447 2442 2428 2407 2420 2408 2415 2406 2409 2399 2400 2404 2409 2395 2398 2394 2396 2397 2387 2393 2393 2395 2391 2394 2389 2394 2396 2386 2391 2383 2383 2376 2380 2393 2385 2385 2386 2381 2389 2379 2379 2383 2389 2371 2376 2383 2379 2390 2387 2377 2373 2382 2386 2381 2378 2382 2385 2381 2388 2382 2389 2394 2382 2388 2378 2385 2390 2389 2391 2390 2378 2383 2388 2386 2392 2381 2385 2391 2377 2386 2385 2385 2419 2442 2427 2429 2421 2423 2412 2449 2448 2441 2443 0 0 0 0 0 0 0 0 0 0
0 0 2638 2548 2548 2521 2547 2469 2475 2438 2444 2435 2431 2417 2429 2441 2437 2425 2436 2420 2424 2425 2425 2422 2400 2405 2408 2412 2399 2398 2413 2405 2395 2393 2390 2397 2395 2401 2386 2390 2398 2389 2394 2390 2396 2388 2386 2392 2381 2385 2382 2379 2382 2388 2383 2385 2380 2380 2381 2376 2373 2379 2381 2374 2375 2387 2382 2381 2377 2384 2371 2379 2384 2377 2380 2370 2381 2378 2380 2382 2396 2379 2380 2376 2385 2402 2390 2417 2422 2386 2375 2390 2402 2381 2400 2381 2397 2412 2372 2396 2383 2391 2407 2391 2379 2401 2395 2366 2391 2404 2403 2393 2420 2426 2414 2375 2436 2390 2416 2457
0 2557 2501 2498 2505 2478 2450 2459 2435 2428 2426 2440 2435 2429 2429 2424 2425 2406 2429 2427 2414 2416 2403 2411 2416 2401 2395 2404 2402 2395 2414 2398 2389 2386 2393 2402 2386 2387 2389 2381 2394 2383 2388 2392 2384 2387 2391 2376 2381 2385 2384 2391 2380 2387 2401 2383 2393 2382 2376 2390 2383 2386 2378 2374 2377 2380 2371 2378 2376 2380 2383 2390 2386 2379 2372 2377 2383 2372 2382 2386 2377 2375 2387 2387 2388 2391 2390 2382 2385 2380 2381 2378 2381 2382 2373 2363 2370 2382 2353 2373 2382 2386 2395 2392 2376 2378 2375 2385 2396 2364 2385 2429 2410 2389 2408 2349 2345 2437 0 0
0 2583 2591 2526 2498 2527 2481 2463 2446 2458 2434 2435 2422 2429 2422 2418 2421 2417 2427 2426 2423 2420 2421 2403 2412 2410 2416 2405 2406 2402 2400 2390 2395 2396 2404 2403 2390 2392 2400 2394 2397 2393 2401 2384 2391 2381 2381 2389 2387 2386 2392 2392 2391 2391 2390 2386 2385 2383 2374 2392 2385 2388 2371 2385 2388 2388 2379 2389 2375 2376 2386 2373 2383 2374 2380 2386 2387 2393 2382 2377 2383 2385 2384 2382 2382 2389 2394 2384 2375 2380 2380 2397 2380 2383 2377 2370 2387 2394 2375 2393 2385 2388 2380 2381 2398 2379 2385 2380 2386 2390 2384 2387 2387 2396 2395 2391 2395 2422 2428 2439
0 0 2542 2517 2476 2539 2499 2447 2440 2443 2437 2435 2421 2421 2422 2410 2430 2423 2407 2438 2417 2409 2412 2412 2402 2400 2408 2397 2404 2389 2394 2391 2389 2397 2389 2390 2384 2395 2390 2385 2394 2383 2389 2386 2385 2386 2380 2373 2388 2375 2374 2383 2371 2387 2380 2381 2380 2373 2378 2391 2382 2373 2385 2376 2379 2385 2380 2386 2382 2377 2376 2372 2386 2369 2376 2376 2380 2379 2380 2383 2377 2382 2376 2375 2381 2380 2381 2368 2368 2372 2368 2377 2382 2379 2377 2386 2372 2377 2376 2381 2374 2373 2377 2387 2371 2366 2394 2380 2366 2361 2379 2373 2383 2399 2380 2398 2371 2393 2364 2444
0 0 2711 2607 2611 2553 2546 2505 2487 2473 2433 2444 2442 2437 2444 2442 2436 2444 2426 2454 2431 2445 2429 2421 2417 2429 2417 2407 2411 2412 2412 2406 2404 2411 2399 2401 2402 2409 2394 2396 2390 2397 2402 2392 2393 2397 2393 2389 2382 2391 2405 2394 2397 2394 2379 2384 2391 2382 2384 2393 2390 2392 2396 2389 2384 2388 2378 2384 2388 2386 2388 2384 2381 2390 2384 2389 2397 2392 2377 2380 2378 2378 2383 2383 2389 2375 2382 2386 2386 2384 2375 2379 2380 2377 2386 2386 2377 2379 2383 2386 2375 2379 2391 2391 2399 2375 2393 2377 2393 2392 2382 2384 2396 2376 2393 2392 2413 2402 2406 2429
0 0 2652 2574 2573 2544 2497 2481 2462 2444 2441 2445 2423 2435 2434 2443 2424 2426 2429 2447 2423 2401 2422 2410 2410 2399 2396 2406 2404 2392 2394 2396 2385 2398 2402 2380 2395 2401 2395 2388 2391 2381 2370 2375 2376 2390 2390 2390 2393 2373 2393 2385 2388 2374 2383 2380 2383 2384 2386 2379 2379 2387 2376 2382 2384 2376 2377 2393 2370 2387 2389 2377 2383 2385 2379 2383 2379 2380 2382 2381 2378 2378 2384 2381 2371 2370 2382 2377 2372 2375 2368 2375 2377 2379 2374 2385 2370 2375 2371 2383 2380 2389 2382 2370 2376 2382 2378 2377 2371 2388 2368 2379 2381 2392 2400 2382 2372 2382 2394 2403
0 0 2605 2614 2542 2482 2483 2477 2441 2436 2443 2439 2435 2433 2433 2432 2439 2422 2421 2424 2429 2424 2413 2412 2407 2413 2406 2407 2400 2391 2401 2402 2407 2388 2399 2393 2397 2387 2397 2394 2385 2397 2397 2387 2384 2388 2385 2390 2399 2380 2392 2382 2396 2394 2388 2382 2386 2387 2382 2386 2386 2380 2387 2375 2378 2384 2379 2374 2388 2380 2375 2385 2388 2372 2381 2380 2376 2376 2387 2381 2387 2383 2388 2375 2375 2377 2378 2378 2377 2379 2367 2366 2377 2372 2397 2373 2382 2368 2370 2379 2376 2375 2374 2371 2379 2381 2366 2381 2377 2385 2370 2376 2376 2380 2382 2381 2371 2386 2388 2392
0 0 0 2605 2541 2556 2507 2492 2465 2473 2456 2442 2436 2441 2438 2438 2439 2439 2427 2451 2420 2410 2410 2424 2414 2421 2407 2410 2402 2392 2393 2397 2397 2399 2397 2394 2391 2391 2394 2378 2388 2396 2397 2387 2389 2395 2393 2405 2394 2380 2391 2387 2381 2378 2388 2381 2385 2383 2372 2381 2383 2378 2376 2387 2385 2382 2379 2373 2388 2373 2380 2390 2382 2390 2378 2382 2381 2387 2385 2382 2384 2380 2390 2366 2386 2380 2375 2373 2379 2380 2361 2380 2374 2376 2386 2378 2368 2383 2369 2373 2384 2373 2379 2380 2377 2376 2377 2374 2375 2379 2367 2370 2389 2367 2376 2370 2380 2392 2390 2396
0 0 0 2666 2580 2571 2514 2493 2527 2470 2455 2446 2465 2439 2440 2438 2439 2442 2438 2446 2436 2416 2429 2412 2419 2413 2396 2411 2406 2410 2402 2403 2387 2400 2397 2391 2381 2395 2383 2385 2396 2393 2397 2390 2394 2403 2393 2379 2384 2390 2395 2379 2393 2390 2380 2380 2390 2382 2383 2380 2387 2377 2382 2379 2387 2366 2380 2383 2383 2382 2387 2388 2384 2384 2387 2377 2378 2374 2375 2370 2375 2381 2394 2371 2386 2378 2379 2373 2381 2383 2380 2366 2382 2378 2384 2377 2380 2377 2377 2380 2381 2371 2374 2376 2371 2380 2383 2387 2372 2376 2389 2389 2380 2370 2374 2376 2375 2383 2365 2411
0 0 0 0 2619 2585 2635 2537 2526 2489 2489 2490 2464 2486 2475 2457 2453 2451 2475 2501 2450 2421 2435 2421 2449 2435 2444 2434 2410 2426 2401 2432 2426 2418 2412 2398 2418 2394 2399 2401 2410 2398 2387 2389 2398 2394 2404 2399 2395 2406 2391 2398 2389 2387 2412 2399 2389 2386 2385 2398 2387 2396 2394 2382 2384 2397 2389 2387 2387 2379 2390 2393 2392 2397 2382 2402 2387 2394 2399 2392 2391 2394 2388 2374 2383 2393 2392 2381 2384 2382 2380 2383 2390 2389 2382 2387 2383 2383 2377 2383 2399 2378 2381 2387 2410 2376 2390 2382 2383 2386 2382 2400 2383 2381 2406 2394 2419 2424 2448 2419
0 0 0 0 0 2607 2573 2514 2467 2531 2482 2462 2485 2472 2448 2429 2445 2454 2446 2464 2443 2395 2422 2407 2448 2413 2421 2406 2415 2415 2409 2400 2404 2400 2407 2400 2387 2391 2395 2391 2385 2386 2388 2381 2407 2390 2391 2345 2378 2390 2395 2379 2381 2373 2377 2387 2385 2383 2389 2377 2378 2381 2384 2385 2386 2383 2382 2386 2373 2387 2363 2384 2381 2381 2382 2397 2386 2388 2385 2373 2373 2375 2378 2376 2383 2389 2369 2385 2382 2374 2367 2386 2367 2384 2376 2382 2381 2370 2371 2389 2373 2364 2379 2387 2387 2385 2378 2383 2375 2382 2379 2380 2392 2377 2386 2386 2365 2403 2396 2428
0 0 0 0 0 2592 2539 2562 2494 2474 2482 2454 2466 2472 2476 2476 2484 2429 2424 2469 2485 2447 2456 2453 2418 2424 2419 2420 2413 2398 2400 2393 2404 2410 2394 2398 2402 2392 2392 2403 2408 2394 2393 2390 2392 2394 2390 2397 2383 2387 2390 2389 2387 2379 2378 2382 2384 2382 2383 2379 2389 2390 2386 2369 2385 2393 2379 2371 2379 2380 2384 2382 2378 2380 2370 2400 2397 2375 2370 2366 2382 2374 2382 2383 2376 2382 2376 2392 2385 2378 2384 2362 2395 2388 2379 2365 2380 2385 2395 2374 2369 2389 2364 2373 2374 2393 2390 2371 2374 2381 2388 2378 2395 2377 2374 2371 2388 2396 2404 2416
0 0 0 0 0 0 2672 2610 2581 2546 2573 2530 2473 2503 2474 2513 2502 2484 2468 2503 2475 2478 2450 2441 2426 2431 2446 2406 2426 2435 2450 2419 2416 2419 2410 2400 2407 2405 2390 2404 2390 2412 2409 2390 2401 2404 2392 2394 2398 2386 2385 2388 2392 2374 2385 2397 2389 2389 2385 2398 2386 2375 2384 2387 2388 2396 2383 2384 2385 2390 2387 2386 2379 2386 2380 2392 2391 2385 2383 2374 2388 2381 2376 2392 2382 2390 2368 2385 2380 2378 2395 2391 2375 2387 2380 2370 2398 2393 2386 2381 2384 2387 2379 2386 2390 2396 2383 2386 2373 2379 2383 2374 2392 2405 2389 2405 2368 2410 2388 2426
0 0 0 0 0 0 0 2606 2566 2556 2513 2491 2480 2482 2466 2470 2496 2472 2451 2449 2438 2438 2429 2433 2473 2420 2425 2427 2418 2405 2430 2411 2408 2406 2382 2414 2384 2403 2401 2399 2398 2386 2392 2396 2405 2401 2376 2411 2392 2394 2381 2382 2386 2380 2376 2372 2384 2376 2386 2372 2389 2384 2383 2378 2374 2387 2371 2369 2376 2370 2379 2367 2395 2389 2377 2388 2391 2388 2388 2382 2390 2373 2372 2379 2385 2378 2367 2388 2380 2368 2380 2377 2385 2378 2382 2388 2380 2376 2374 2384 2384 2378 2380 2379 2389 2390 2396 2373 2367 2377 2380 2394 2368 2417 2383 2387 2413 2412 2391 2425
0 0 0 0 0 0 0 0 0 2572 2595 2541 2535 2470 2533 2474 2503 2496 2507 2512 2463 2474 2476 2477 2496 2453 2416 2423 2427 2435 2409 2397 2584 2438 2424 2410 2408 2403 2427 2372 2410 2425 2393 2399 2397 2397 2402 2401 2388 2388 2386 2394 2392 2392 2376 2404 2389 2392 2389 2379 2399 2382 2405 2375 2379 2387 2387 2392 2397 2378 2391 2387 2384 2390 2392 2384 2386 2388 2391 2382 2403 2399 2386 2386 2379 2389 2384 2384 2385 2398 2396 2378 2366 2360 2376 2379 2384 2384 2386 2380 2391 2404 2390 2376 2377 2363 2385 2373 2379 2416 2387 2400 2403 2400 2375 2406 2425 2430 2421 2460
0 0 0 0 0 0 0 0 0 0 2500 0 2514 2504 2483 2518 0 0 0 0 2420 2462 2448 2384 2459 2442 2444 2434 2430 2422 2411 2440 2379 2388 2387 2362 2411 2387 2360 2390 2385 2379 2363 2366 2389 2345 2388 2380 2377 2365 2351 2381 2362 2377 2367 2368 2356 2350 2392 2361 2363 2365 2374 2355 2368 2349 2386 2367 2369 2367 2371 2360 2379 2351 2372 2377 2368 2377 2368 2390 2376 2359 2365 2379 2359 2375 2381 2377 2367 2372 2373 2381 2360 2373 2371 2372 2365 2356 2364 2384 2380 2380 2385 2375 2392 2378 2385 2367 2365 2367 2404 2361 2365 2398 2364 2386 2376 2382 2377 2413
0 0 0 0 0 0 0 0 0 0 0 0 0 2564 2520 2588 0 0 0 0 0 2531 2551 0 2498 0 2429 2509 2448 2412 2449 2425 2405 2427 2411 2451 2403 2390 2429 2416 2412 2398 2411 2380 2385 2418 2390 2405 2390 2379 2382 2372 2375 2373 2373 2385 2382 2395 2389 2383 2373 2386 2384 2368 2381 2379 2388 2386 2367 2395 2370 2374 2377 2381 2395 2401 2398 2388 2374 2392 2384 2386 2376 2379 2374 2392 2383 2382 2371 2383 2376 2383 2387 2385 2366 2377 2384 2378 2378 2374 2386 2365 2386 2396 2379 2383 2409 2374 2381 2374 2385 2378 2376 2428 2370 2425 2401 2354 2415 2440
0 0 0 0 0 0 0 0 0 0 0 0 0 0 0 0 0 0 0 0 0 0 0 0 0 0 0 0 0 2469 2476 2482 2453 2404 2479 0 2431 2439 2393 2399 2414 2421 2464 2414 2420 2407 2393 2402 2385 2374 2399 2375 2391 2390 2384 2392 2385 2384 2391 2393 2399 2390 2399 2379 2392 2384 2408 2376 2380 2398 2374 2367 2382 2398 2383 2407 2396 2374 2397 2384 2380 2391 2395 2369 2375 2361 2396 2390 2373 2393 2390 2377 2392 2366 2371 2366 2381 2406 2369 2409 2372 2378 2365 2389 2414 2388 2385 2390 2385 2386 2385 2417 2388 2433 2430 2406 2413 2443 2391 0
0 0 0 0 0 0 0 0 0 0 0 0 0 0 0 0 0 0 0 0 0 0 0 0 0 0 0 0 0 0 0 0 0 2419 2422 2431 2451 0 2447 2421 2392 2397 2423 2391 2367 2349 2413 2408 2398 2397 2382 2413 2415 2393 2381 2377 2392 2374 2414 2351 2397 2381 2342 2387 2365 2372 2393 2390 2371 2360 2374 2379 2370 2399 2379 2408 2395 2380 2374 2400 2359 2377 2387 2354 2419 2377 2373 2358 2381 2396 2356 2362 2379 2372 2381 2368 2392 2361 2405 2364 2399 2384 2370 2382 2398 2387 2369 2389 2379 2372 2409 2366 2403 2366 2425 2360 2424 2440 0 0
0 0 0 0 0 0 0 0 0 0 0 0 0 0 0 0 0 0 0 0 0 0 0 0 0 0 0 0 0 0 0 0 0 0 0 0 0 0 0 0 0 0 0 0 2382 2420 2402 0 0 2427 2411 2409 2416 2404 2412 2380 2343 2397 2424 2400 2385 2397 2392 2438 2383 2382 2396 2392 2399 2439 2400 2399 2396 2371 2392 2410 2392 2409 2413 2379 2414 2385 2396 2395 2442 2381 2385 2375 2411 2421 2433 2436 2415 2413 2394 2383 2427 2374 2392 2395 2392 2391 2432 2420 2456 2413 2421 2412 2377 2426 2390 2422 2416 2430 2480 2469 2491 0 0 0
0 0 0 0 0 0 0 0 0 0 0 0 0 0 0 0 0 0 0 0 0 0 0 0 0 0 0 0 0 0 0 0 0 0 0 0 0 0 0 0 0 0 0 0 0 0 0 0 0 0 0 0 0 0 0 0 2341 2324 2383 2363 2399 2383 2395 2399 2352 2354 2381 2410 0 2406 0 2351 2394 2362 2384 2357 2367 2387 2384 2397 2370 2375 2367 2400 2391 2361 2381 2342 2363 2386 2397 2359 2401 2373 2401 2368 2420 2401 2411 2370 2392 2384 2391 0 2443 2353 2402 2436 2373 2399 2389 2426 2452 2409 2476 2458 0 0 0 0
0 0 0 0 0 0 0 0 0 0 0 0 0 0 0 0 0 0 0 0 0 0 0 0 0 0 0 0 0 0 0 0 0 0 0 0 0 0 0 0 0 0 0 0 0 0 0 0 0 0 0 0 0 0 0 0 0 0 0 0 0 0 0 0 0 0 0 0 0 0 0 0 0 2464 2390 0 0 0 2414 2416 2432 2413 2492 0 0 2424 2420 2445 2472 2488 2441 2436 2404 0 2420 2414 2461 2447 2473 2443 2451 2401 2364 0 2515 0 2520 2433 2467 2487 2465 2512 0 0 0 0 0 0 0 0
0 0 0 0 0 0 0 0 0 0 0 0 0 0 0 0 0 0 0 0 0 0 0 0 0 0 0 0 0 0 0 0 0 0 0 0 0 0 0 0 0 0 0 0 0 0 0 0 0 0 0 0 0 0 0 0 0 0 0 0 0 0 0 0 0 0 0 0 0 0 0 0 0 0 0 0 0 0 0 0 0 0 0 0 0 0 0 0 0 0 0 0 0 0 0 0 0 0 0 0 0 0 0 0 0 0 0 0 0 2416 0 0 0 0 0 0 0 0 0 0
0 0 0 0 0 0 0 0 0 0 0 0 0 0 0 0 0 0 0 0 0 0 0 0 0 0 0 0 0 0 0 0 0 0 0 0 0 0 0 0 0 0 0 0 0 0 0 0 0 0 0 0 0 0 0 0 0 0 0 0 0 0 0 0 0 0 0 0 0 0 0 0 0 0 0 0 0 0 0 0 0 0 0 0 0 0 0 0 0 0 0 0 0 0 0 0 0 0 0 0 0 0 0 0 0 0 0 0 0 0 0 0 0 0 0 0 0 0 0 0
27 0 0 0 0 0 0 0 0 0 0 0 0 0 0 0 0 0 0 0 0 0 0 0 0 0 0 0 0 0 0 0 0 0 0 0 0 0 0 0 0 0 0 0 0 0 0 0 0 0 0 0 0 0 0 0 0 0 0 0 0 0 0 0 0 0 0 0 0 0 0 0 0 0 0 0 0 0 0 0 0 0 0 0 0 0 0 0 0 0 0 0 0 0 0 0 0 0 0 0 0 0 0 0 0 0 0 0 0 0 0 0 0 0 0 0 0 0 0 0
