0 0 2707 2788 0 0 0 0 0 0 0 0 0 2621 2538 2510 2425 2456 2461 2505 2441 2406 2412 2448 2435 2396 2362 2336 2381 2399 2380 2410 2370 2375 2403 2410 2367 2364 2362 2314 2379 2353 2384 2346 2359 0 0 2423 2409 2476 0 0 2318 2336 2321 2324 2346 2361 2307 2352 2324 2333 2318 2309 2363 2319 2339 2324 2325 2363 2342 2321 2341 2384 2349 2321 2369 2322 2338 2334 2348 2325 2368 2360 2365 2341 2338 2323 2376 2326 2352 2378 2309 2367 2391 2404 2403 2407 2382 2378 2329 2362 2397 2352 2365 2332 2332 2367 2373 2407 2381 2464 0 0 0 0 0 0 0 0
0 0 2644 2661 0 0 0 0 2476 2605 2614 2543 0 2463 2425 2430 2455 2428 2425 2405 2398 2399 2378 2406 2384 2366 2429 2373 2367 2428 2343 2418 2355 2507 2386 2332 2424 2337 2385 2375 2333 2292 2293 2283 2336 0 0 0 2435 2397 0 2343 2353 2324 2347 2370 2350 2352 2363 2340 2314 2330 2313 2286 2320 2305 2321 2375 2343 2360 2338 2333 2333 2325 2344 2320 2325 2349 2323 2337 2332 2346 2307 2360 2338 2338 2326 2355 2350 2345 2366 2345 2300 2350 2331 2307 2373 2315 2314 2339 2393 2386 2412 2352 2330 2409 2492 2322 2348 2376 2358 2410 0 0 0 0 0 0 0 0
0 2866 2719 2814 0 0 2633 2472 2534 2507 2490 2573 2525 2488 2421 2434 2439 2432 2409 2402 2365 2407 2409 2440 2427 2391 2440 2407 2332 2354 2373 2379 2391 2394 2365 2404 2356 2360 2347 2391 2360 2349 2366 2336 2374 2383 2464 0 2409 2416 0 2266 2297 2346 2325 2338 2358 2303 2354 2322 2357 2343 2320 2334 2330 2342 2335 2356 2321 2336 2322 2315 2331 2344 2344 2354 2343 2371 2320 2368 2329 2326 2364 2323 2334 2353 2357 2343 2340 2349 2352 2382 2386 2395 2357 2373 2372 2370 2394 2383 2347 2331 2322 2380 2331 2355 2431 2357 2358 2391 2397 2396 2398 2487 0 0 0 0 0 0
2853 2838 2761 2711 2662 2696 2509 2475 2457 2507 2471 2433 2502 2409 2431 2433 2459 2439 2414 2395 2384 2418 2436 2386 2420 2411 2399 2392 2397 2396 2397 2374 2397 2402 2403 2353 2390 2372 2364 2355 2360 2361 2345 2342 2350 2347 2350 2346 2412 2414 2365 2334 2363 2358 2327 2366 2371 2354 2342 2379 2387 2341 2361 2398 2323 2345 2358 2376 2352 2348 2368 2344 2365 2360 2360 2363 2346 2351 2375 2365 2358 2340 2369 2352 2375 2377 2387 2379 2385 2352 2353 2374 2367 2382 2352 2348 2368 2411 2400 2399 2402 2386 2335 2361 2398 2367 2372 2432 2392 2373 2414 2369 2364 2437 2539 0 0 0 0 0
2774 2726 2616 2578 2463 2506 2500 2437 2427 2433 2403 2416 2420 2387 2403 2406 2363 2391 2357 2361 2409 2358 2385 2410 2372 2365 2354 2368 2352 2353 2334 2365 2356 2359 2381 2355 2366 2339 2362 2333 2346 2343 2379 2328 2329 2343 2363 2318 2327 2355 2355 2339 2363 2326 2358 2317 2334 2332 2359 2301 2340 2366 2349 2362 2349 2356 2339 2336 2348 2334 2339 2337 2323 2339 2340 2324 2342 2345 2360 2317 2333 2329 2354 2350 2354 2369 2349 2335 2333 2335 2357 2368 2349 2350 2346 2318 2337 2316 2313 2343 2340 2333 2342 2328 2345 2354 2373 2365 2344 2326 2376 2356 2344 2354 2401 0 0 0 0 0
2726 2670 2579 2502 2480 2514 2475 2456 2422 2450 2464 2432 2412 2417 2405 2420 2410 2430 2395 2439 2400 2406 2372 2389 2396 2387 2377 2374 2387 2368 2386 2327 2354 2395 2357 2376 2350 2389 2362 2362 2365 2375 2333 2374 2342 2329 2367 2340 2341 2330 2326 2363 2343 2337 2340 2359 2375 2374 2341 2349 2344 2365 2336 2353 2348 2339 2355 2368 2345 2352 2367 2346 2363 2340 2352 2352 2344 2340 2342 2350 2357 2366 2378 2370 2332 2373 2337 2335 2372 2335 2368 2355 2348 2370 2380 2342 2358 2368 2356 2374 2380 2354 2357 2340 2345 2360 2369 2345 2349 2356 2374 2369 2395 2389 2429 2364 2453 0 0 0
2670 2676 2521 2509 2472 2516 2458 2490 2433 2438 2442 2459 2432 2452 2410 2412 2409 2425 2413 2409 2433 2392 2403 2403 2400 2411 2387 2393 2377 2382 2391 2411 2395 2388 2389 2362 2374 2400 2368 2364 2360 2372 2352 2357 2361 2376 2359 2367 2368 2347 2374 2352 2376 2362 2363 2351 2344 2366 2374 2341 2359 2365 2389 2375 2372 2349 2363 2360 2363 2367 2352 2350 2358 2362 2361 2359 2366 2349 2368 2344 2355 2352 2360 2381 2384 2392 2373 2381 2360 2382 2366 2375 2370 2380 2369 2355 2366 2375 2371 2353 2371 2384 2371 2358 2411 2380 2376 2377 2389 2369 2378 2361 2410 2417 2423 2397 2516 2554 0 0
2573 2486 2500 2493 2450 2454 2435 2439 2399 2405 2426 2414 2396 2426 2433 2395 2385 2392 2373 2385 2404 2389 2400 2394 2400 2385 2375 2357 2366 2373 2376 2345 2369 2372 2354 2367 2360 2379 2355 2351 2358 2353 2346 2364 2344 2362 2351 2359 2371 2341 2352 2368 2346 2343 2342 2361 2355 2354 2347 2360 2355 2356 2372 2352 2358 2362 2354 2343 2365 2342 2334 2354 2360 2342 2344 2348 2336 2368 2335 2372 2344 2354 2364 2343 2363 2344 2356 2388 2355 2346 2341 2340 2361 2348 2354 2356 2357 2363 2350 2346 2348 2354 2356 2340 2374 2395 2342 2345 2344 2372 2370 2363 2343 2344 2370 2414 2392 2439 0 0
2634 2527 2473 2468 2472 2448 2434 2405 2435 2392 2405 2411 2417 2419 2399 2405 2381 2379 2372 2364 2387 2381 2397 2395 2392 2395 2369 2364 2357 2387 2355 2363 2362 2369 2381 2361 2369 2364 2370 2355 2345 2348 2359 2345 2355 2355 2348 2328 2352 2353 2361 2357 2347 2340 2341 2358 2363 2325 2359 2342 2356 2343 2362 2369 2340 2347 2343 2359 2364 2350 2348 2356 2351 2333 2340 2347 2341 2341 2340 2361 2352 2349 2345 2339 2362 2346 2381 2372 2341 2354 2372 2353 2350 2337 2350 2341 2341 2362 2345 2342 2334 2356 2369 2362 2356 2360 2360 2386 2363 2387 2361 2335 2421 2367 2413 2405 2376 2403 2477 0
2506 2486 2494 2438 2476 2441 2421 2409 2411 2411 2434 2398 2393 2385 2388 2406 2396 2371 2397 2388 2400 2389 2389 2376 2380 2375 2374 2379 2373 2378 2365 2370 2374 2372 2372 2362 2368 2368 2369 2371 2371 2369 2358 2366 2354 2367 2351 2345 2365 2350 2354 2362 2343 2354 2348 2367 2360 2356 2362 2354 2363 2359 2359 2349 2344 2340 2359 2358 2363 2344 2354 2342 2364 2364 2342 2356 2344 2341 2336 2362 2338 2368 2357 2351 2355 2376 2359 2372 2349 2349 2341 2363 2359 2349 2340 2357 2362 2376 2386 2376 2355 2346 2357 2351 2355 2359 2374 2346 2363 2385 2384 2370 2359 2406 2469 2417 2361 2389 2484 2478
2462 2468 2441 2411 2386 2428 2401 2396 2414 2396 2392 2379 2372 2379 2398 2372 2382 2390 2397 2372 2378 2386 2388 2365 2371 2366 2361 2386 2365 2373 2362 2362 2365 2364 2372 2354 2356 2366 2362 2359 2365 2353 2373 2357 2349 2347 2354 2348 2350 2353 2359 2342 2347 2358 2339 2351 2351 2353 2344 2339 2350 2341 2360 2340 2366 2364 2350 2352 2348 2353 2355 2348 2356 2353 2354 2344 2339 2337 2363 2353 2339 2346 2353 2350 2343 2348 2336 2347 2357 2337 2354 2356 2346 2355 2336 2340 2358 2336 2349 2349 2355 2342 2351 2347 2351 2369 2353 2330 2357 2365 2359 2355 2341 2359 2344 2310 2400 2359 2305 2414
2437 2455 2424 2418 2447 2444 2421 2414 2382 2413 2384 2413 2392 2391 2395 2378 2375 2380 2381 2386 2374 2376 2376 2378 2359 2356 2368 2381 2372 2383 2373 2370 2367 2359 2353 2376 2362 2357 2357 2360 2359 2359 2360 2350 2357 2356 2350 2351 2357 2350 2348 2361 2346 2357 2333 2356 2363 2349 2349 2354 2356 2348 2346 2356 2341 2342 2349 2352 2364 2341 2333 2351 2334 2343 2348 2344 2338 2364 2353 2342 2346 2339 2348 2357 2344 2365 2342 2351 2352 2355 2337 2347 2339 2347 2345 2364 2352 2346 2335 2349 2354 2356 2353 2357 2358 2348 2359 2363 2365 2344 2349 2373 2352 2389 2371 2370 2337 2402 2426 2649
2472 2496 2449 2439 2476 2445 2409 2396 2410 2413 2398 2397 2403 2402 2403 2372 2384 2384 2383 2379 2393 2390 2385 2376 2370 2384 2378 2370 2369 2379 2386 2373 2370 2372 2371 2384 2371 2373 2358 2373 2374 2379 2362 2368 2359 2358 2361 2360 2357 2365 2359 2364 2348 2354 2358 2353 2362 2355 2356 2352 2351 2355 2354 2367 2348 2350 2348 2353 2353 2360 2362 2349 2367 2352 2351 2347 2363 2351 2357 2340 2349 2359 2369 2354 2353 2355 2355 2357 2354 2358 2360 2365 2350 2363 2351 2351 2366 2346 2358 2347 2344 2342 2353 2354 2364 2352 2335 2355 2372 2367 2348 2353 2429 2380 2359 2416 2362 2448 2529 2612
2527 2526 2417 2405 2423 2411 2403 2406 2389 2404 2398 2401 2419 2398 2383 2389 2394 2385 2378 2382 2385 2375 2364 2373 2375 2380 2357 2372 2363 2356 2376 2385 2382 2372 2372 2362 2352 2358 2374 2368 2363 2357 2352 2374 2360 2348 2359 2361 2354 2367 2358 2349 2355 2352 2358 2349 2357 2356 2352 2350 2351 2349 2343 2358 2353 2357 2342 2348 2347 2351 2349 2354 2352 2344 2339 2349 2336 2344 2344 2351 2351 2354 2345 2354 2353 2352 2356 2360 2350 2355 2356 2349 2333 2363 2354 2343 2352 2353 2352 2343 2361 2352 2360 2359 2361 2361 2357 2348 2351 2365 2356 2371 2344 2367 2373 2369 2357 2348 2373 2448
2468 2450 2441 2411 2405 2400 2390 2403 2429 2397 2422 2376 2392 2387 2366 2388 2363 2375 2367 2377 2378 2381 2378 2358 2369 2379 2369 2387 2371 2378 2382 2373 2373 2375 2371 2374 2367 2373 2384 2360 2362 2357 2346 2369 2371 2363 2349 2351 2351 2355 2364 2350 2354 2340 2357 2350 2360 2357 2353 2338 2347 2355 2342 2347 2345 2343 2350 2334 2339 2332 2335 2343 2350 2344 2337 2343 2343 2345 2343 2338 2345 2341 2344 2346 2353 2353 2352 2350 2346 2349 2358 2365 2349 2344 2354 2348 2352 2342 2357 2337 2358 2354 2345 2336 2325 2337 2351 2330 2349 2330 2342 2336 2358 2344 2341 2340 2370 2343 2442 2382
2445 2428 2407 2414 2450 2424 2386 2397 2398 2394 2396 2398 2391 2385 2371 2393 2379 2373 2391 2370 2373 2375 2369 2372 2368 2368 2374 2357 2366 2371 2379 2371 2359 2376 2359 2355 2363 2377 2344 2362 2354 2349 2370 2361 2353 2347 2351 2349 2358 2361 2349 2364 2350 2342 2362 2361 2354 2357 2347 2345 2356 2358 2361 2354 2361 2350 2351 2353 2350 2359 2355 2342 2351 2359 2337 2352 2358 2347 2347 2342 2354 2358 2340 2363 2354 2344 2346 2363 2352 2352 2352 2383 2361 2355 2364 2369 2360 2366 2346 2350 2362 2359 2357 2350 2353 2372 2357 2361 2367 2354 2355 2349 2365 2328 2409 2380 2340 2368 2336 2438
2390 2414 2407 2422 2390 2410 2381 2385 2380 2386 2395 2389 2382 2387 2379 2387 2368 2384 2384 2371 2373 2374 2370 2365 2369 2373 2358 2378 2374 2371 2379 2367 2363 2376 2364 2368 2357 2354 2368 2362 2372 2364 2359 2355 2362 2359 2353 2347 2358 2349 2354 2354 2354 2352 2351 2359 2338 2348 2349 2356 2350 2354 2349 2356 2347 2355 2351 2348 2359 2344 2357 2351 2345 2343 2344 2356 2341 2343 2356 2354 2350 2348 2342 2353 2340 2348 2352 2346 2353 2349 2349 2365 2354 2359 2353 2362 2366 2354 2348 2359 2355 2348 2360 2344 2346 2346 2359 2355 2341 2354 2366 2350 2391 2347 2360 2338 2329 2396 2332 2484
2418 2414 2412 2395 2421 2396 2386 2376 2390 2384 2376 2390 2371 2380 2381 2377 2376 2372 2375 2382 2377 2362 2371 2365 2358 2367 2370 2368 2360 2362 2361 2363 2363 2366 2349 2351 2355 2348 2353 2359 2356 2360 2351 2353 2350 2353 2355 2346 2350 2348 2352 2349 2340 2349 2345 2351 2356 2343 2349 2337 2345 2351 2342 2326 2352 2344 2345 2347 2346 2344 2332 2341 2348 2346 2342 2342 2341 2338 2347 2347 2328 2334 2346 2341 2347 2352 2337 2347 2352 2347 2345 2345 2355 2334 2341 2339 2344 2343 2341 2355 2352 2342 2352 2353 2356 2354 2346 2338 2359 2367 2330 2345 2338 2332 2339 2311 2375 2335 2359 2425
2414 2452 2464 2427 2430 2408 2397 2382 2405 2401 2380 2386 2391 2381 2378 2373 2371 2390 2390 2372 2370 2370 2379 2390 2379 2385 2365 2363 2369 2365 2375 2371 2356 2369 2365 2369 2367 2358 2359 2362 2361 2363 2362 2352 2355 2354 2355 2353 2348 2368 2347 2350 2357 2344 2356 2353 2349 2357 2354 2339 2356 2348 2342 2365 2354 2355 2353 2352 2345 2352 2358 2353 2356 2354 2349 2346 2356 2352 2342 2354 2349 2359 2354 2352 2342 2337 2353 2342 2353 2344 2349 2361 2353 2348 2357 2345 2350 2350 2346 2352 2344 2353 2364 2360 2354 2337 2352 2355 2355 2359 2357 2361 2352 2325 2359 2355 2366 2396 2439 2461
2414 2449 2399 2406 2379 2380 2393 2390 2375 2395 2382 2388 2377 2384 2374 2381 2373 2374 2387 2390 2375 2367 2373 2377 2360 2374 2369 2364 2372 2367 2365 2367 2367 2357 2363 2357 2365 2356 2358 2364 2352 2349 2359 2344 2354 2349 2358 2360 2355 2354 2358 2356 2357 2352 2355 2350 2344 2346 2350 2361 2353 2351 2358 2354 2349 2346 2351 2354 2341 2348 2348 2339 2354 2347 2347 2344 2348 2348 2344 2339 2352 2352 2344 2355 2342 2342 2346 2349 2350 2355 2355 2351 2346 2348 2344 2348 2344 2362 2350 2338 2355 2354 2347 2347 2345 2341 2343 2343 2355 2345 2336 2338 2327 2328 2354 2343 2374 2368 2363 2362
2387 2406 2401 2395 2405 2392 2392 2387 2384 2387 2387 2376 2368 2377 2381 2375 2365 2360 2367 2370 2366 2359 2366 2361 2362 2364 2375 2365 2361 2361 2362 2373 2364 2372 2349 2360 2357 2369 2357 2352 2349 2353 2352 2346 2352 2348 2343 2353 2345 2351 2351 2346 2345 2352 2353 2347 2348 2343 2341 2344 2353 2343 2335 2351 2341 2353 2338 2344 2338 2350 2346 2342 2348 2344 2345 2338 2349 2345 2340 2351 2336 2337 2349 2349 2339 2355 2344 2352 2337 2353 2353 2356 2348 2347 2345 2357 2354 2340 2347 2347 2343 2330 2355 2353 2349 2359 2345 2337 2345 2343 2338 2338 2352 2333 2354 2330 2341 2371 2343 2407
2414 2418 2390 2399 2427 2403 2399 2382 2394 2378 2381 2379 2376 2377 2385 2392 2361 2375 2375 2385 2377 2370 2358 2370 2383 2368 2364 2356 2359 2365 2360 2372 2365 2368 2358 2355 2357 2368 2361 2363 2362 2359 2351 2357 2347 2352 2352 2357 2350 2347 2347 2348 2347 2348 2352 2347 2346 2343 2340 2356 2345 2342 2358 2346 2347 2343 2345 2338 2341 2351 2342 2347 2350 2342 2338 2338 2346 2352 2348 2348 2341 2351 2350 2347 2361 2342 2347 2344 2347 2347 2351 2344 2351 2341 2355 2348 2355 2344 2350 2346 2344 2361 2355 2352 2342 2344 2351 2352 2345 2360 2332 2346 2358 2361 2366 2357 2330 2389 2361 2399
2436 2408 2397 2401 2432 2389 2384 2381 2381 2390 2378 2366 2381 2374 2380 2376 2377 2364 2378 2377 2366 2369 2363 2376 2370 2358 2372 2361 2355 2369 2358 2366 2364 2369 2370 2354 2352 2359 2353 2363 2355 2358 2355 2359 2345 2359 2351 2349 2354 2351 2355 2355 2341 2354 2351 2348 2338 2347 2346 2342 2347 2356 2355 2353 2344 2348 2350 2348 2345 2332 2334 2343 2344 2353 2341 2342 2343 2346 2342 2349 2346 2346 2340 2346 2343 2340 2342 2351 2334 2350 2349 2358 2348 2337 2349 2344 2346 2346 2356 2348 2345 2346 2342 2354 2350 2345 2335 2355 2350 2346 2344 2344 2347 2342 2355 2342 2333 2335 2380 2348
2424 2384 2413 2404 2403 2396 2387 2389 2386 2377 2397 2367 2372 2372 2373 2373 2362 2369 2362 2370 2375 2369 2375 2362 2361 2359 2367 2372 2361 2362 2363 2364 2363 2371 2360 2362 2371 2355 2358 2352 2359 2348 2353 2350 2347 2348 2351 2345 2350 2355 2343 2339 2354 2341 2344 2340 2350 2348 2354 2350 2348 2344 2354 2336 2342 2347 2355 2339 2342 2337 2348 2346 2343 2344 2341 2347 2336 2343 2339 2348 2347 2349 2348 2346 2362 2343 2335 2342 2347 2350 2353 2350 2350 2343 2352 2340 2357 2350 2331 2340 2356 2345 2345 2351 2345 2340 2343 2358 2330 2351 2349 2330 2341 2339 2337 2330 2329 2344 2323 2385
2422 2413 2411 2420 2428 2402 2392 2377 2380 2396 2380 2378 2367 2375 2365 2377 2377 2370 2346 2378 2377 2366 2376 2371 2367 2364 2362 2370 2357 2364 2374 2363 2368 2382 2367 2348 2356 2349 2357 2354 2356 2359 2348 2353 2359 2360 2346 2356 2344 2348 2351 2352 2343 2339 2355 2342 2341 2341 2338 2342 2341 2349 2350 2336 2348 2345 2345 2343 2349 2340 2344 2342 2347 2342 2353 2348 2350 2348 2348 2347 2349 2342 2343 2344 2343 2336 2345 2342 2349 2347 2358 2356 2348 2336 2348 2343 2345 2334 2349 2356 2347 2341 2344 2347 2340 2345 2344 2331 2348 2348 2340 2355 2333 2331 2353 2343 2342 2372 2361 2371
2427 2427 2428 2425 2439 2415 2404 2396 2385 2392 2386 2386 2387 2382 2386 2387 2379 2377 2376 2376 2369 2380 2368 2379 2379 2369 2365 2371 2367 2364 2372 2372 2363 2379 2374 2369 2364 2377 2357 2365 2361 2362 2352 2361 2351 2354 2359 2365 2362 2356 2357 2346 2353 2349 2362 2360 2355 2351 2356 2356 2359 2362 2367 2362 2348 2354 2349 2347 2353 2348 2342 2328 2349 2344 2350 2346 2349 2350 2350 2355 2350 2340 2360 2343 2352 2354 2348 2344 2353 2347 2360 2353 2355 2350 2360 2359 2353 2352 2356 2346 2356 2364 2364 2349 2354 2347 2359 2351 2357 2367 2351 2347 2357 2352 2343 2407 2388 2391 2415 2391
2406 2438 2423 2437 2427 2405 2397 2399 2392 2386 2381 2387 2383 2379 2382 2383 2369 2378 2374 2366 2366 2366 2368 2372 2369 2371 2360 2367 2367 2359 2366 2370 2377 2370 2370 2357 2360 2357 2364 2363 2352 2350 2353 2351 2357 2362 2355 2358 2354 2351 2352 2346 2343 2353 2342 2350 2347 2341 2351 2353 2356 2351 2362 2345 2348 2349 2349 2353 2347 2344 2345 2343 2342 2349 2350 2350 2349 2346 2348 2341 2351 2358 2350 2344 2348 2354 2353 2347 2349 2340 2357 2345 2345 2346 2348 2342 2348 2360 2351 2355 2343 2347 2357 2354 2358 2360 2346 2341 2350 2350 2356 2338 2349 2335 2356 2358 2363 2349 2348 2367
2460 2423 2425 2406 2434 2400 2403 2382 2384 2383 2392 2389 2386 2377 2373 2369 2379 2384 2382 2368 2385 2365 2361 2369 2365 2377 2368 2380 2360 2371 2363 2367 2362 2373 2369 2369 2362 2354 2356 2360 2357 2355 2351 2355 2359 2355 2357 2353 2353 2347 2349 2342 2351 2351 2355 2348 2348 2348 2351 2349 2349 2351 2353 2348 2347 2350 2346 2348 2350 2342 2343 2352 2339 2343 2339 2344 2349 2357 2339 2348 2341 2358 2352 2346 2339 2346 2353 2348 2350 2350 2359 2359 2352 2352 2342 2357 2348 2350 2345 2352 2349 2335 2347 2352 2354 2360 2347 2352 2357 2355 2359 2361 2353 2369 2360 2363 2379 2388 2405 2405
2451 2412 2441 2406 2425 2407 2399 2403 2392 2399 2397 2398 2386 2389 2385 2374 2380 2383 2384 2392 2377 2384 2376 2373 2377 2373 2383 2370 2382 2362 2370 2367 2374 2369 2371 2369 2370 2371 2356 2369 2362 2365 2361 2361 2360 2358 2366 2365 2357 2360 2350 2361 2364 2357 2348 2356 2353 2362 2353 2350 2358 2357 2364 2359 2358 2349 2360 2357 2351 2355 2352 2351 2348 2350 2347 2352 2352 2351 2351 2356 2347 2351 2348 2367 2359 2357 2354 2351 2363 2363 2349 2375 2363 2365 2362 2357 2352 2356 2351 2359 2342 2360 2357 2353 2362 2358 2356 2365 2355 2348 2364 2361 2370 2370 2369 2362 2388 2382 2378 2475
2399 2405 2401 2402 2394 2405 2383 2395 2392 2386 2377 2387 2390 2381 2369 2381 2390 2371 2386 2373 2364 2380 2373 2377 2372 2363 2370 2361 2374 2371 2368 2366 2366 2356 2354 2346 2365 2354 2360 2346 2351 2356 2364 2347 2354 2354 2353 2357 2359 2346 2351 2352 2348 2347 2349 2352 2344 2352 2349 2356 2361 2356 2352 2351 2351 2357 2344 2349 2355 2345 2344 2350 2353 2346 2343 2346 2351 2343 2343 2343 2341 2345 2340 2344 2336 2348 2349 2340 2354 2355 2358 2352 2354 2357 2351 2353 2352 2353 2344 2349 2347 2363 2355 2336 2348 2362 2345 2346 2354 2367 2349 2364 2350 2353 2355 2326 2336 2358 2363 2429
2467 2421 2403 2419 2440 2396 2410 2405 2398 2396 2385 2387 2394 2383 2383 2385 2381 2379 2388 2375 2380 2365 2376 2370 2372 2375 2361 2366 2366 2374 2371 2361 2366 2374 2360 2371 2365 2357 2363 2363 2370 2354 2354 2351 2355 2360 2355 2354 2360 2353 2356 2350 2352 2352 2358 2344 2357 2356 2353 2353 2350 2348 2345 2344 2354 2352 2352 2343 2352 2354 2341 2345 2356 2347 2368 2335 2343 2339 2347 2344 2347 2350 2351 2349 2363 2349 2365 2352 2356 2356 2338 2352 2344 2348 2356 2350 2347 2350 2359 2348 2352 2356 2358 2359 2348 2344 2361 2343 2354 2355 2360 2356 2366 2364 2352 2356 2365 2400 2359 2392
2454 2435 2434 2395 2411 2411 2402 2407 2409 2397 2395 2388 2394 2387 2377 2385 2388 2391 2376 2380 2380 2384 2373 2380 2378 2369 2379 2377 2371 2371 2365 2369 2372 2370 2372 2384 2375 2361 2362 2362 2357 2355 2367 2349 2355 2354 2361 2363 2357 2352 2347 2352 2354 2362 2351 2357 2361 2354 2353 2354 2361 2356 2359 2355 2364 2357 2356 2355 2350 2356 2345 2349 2351 2352 2366 2354 2342 2348 2352 2353 2366 2354 2358 2355 2353 2360 2347 2352 2359 2355 2364 2368 2355 2354 2356 2362 2364 2350 2359 2356 2361 2364 2356 2356 2363 2348 2366 2353 2358 2370 2356 2355 2370 2351 2375 2376 2394 2392 2406 2423
2415 2397 2415 2396 2417 2402 2392 2383 2390 2387 2374 2377 2401 2377 2384 2369 2374 2377 2374 2373 2371 2377 2369 2369 2381 2365 2368 2368 2366 2370 2364 2369 2374 2366 2362 2360 2367 2362 2354 2351 2355 2359 2348 2350 2356 2361 2350 2356 2348 2348 2359 2362 2361 2350 2351 2357 2353 2346 2356 2358 2348 2349 2360 2354 2355 2344 2353 2354 2354 2349 2352 2346 2345 2354 2346 2346 2346 2344 2345 2347 2337 2343 2354 2346 2345 2353 2352 2354 2349 2355 2355 2365 2356 2347 2350 2348 2351 2360 2353 2358 2355 2342 2354 2346 2352 2346 2350 2353 2342 2344 2348 2336 2347 2330 2357 2354 2351 2377 2365 2398
2439 2430 2410 2406 2416 2405 2397 2395 2399 2379 2395 2368 2385 2387 2377 2379 2381 2369 2381 2389 2371 2358 2374 2369 2366 2374 2369 2371 2370 2381 2367 2366 2366 2372 2370 2362 2348 2359 2355 2357 2358 2365 2355 2356 2352 2354 2342 2354 2359 2360 2354 2349 2360 2339 2351 2356 2353 2346 2350 2343 2354 2360 2358 2357 2350 2349 2349 2349 2354 2349 2351 2352 2349 2343 2350 2346 2353 2347 2346 2347 2348 2347 2344 2344 2340 2346 2351 2346 2360 2347 2343 2343 2350 2353 2360 2360 2353 2353 2343 2345 2351 2347 2345 2358 2355 2355 2347 2347 2346 2347 2347 2351 2344 2365 2348 2347 2372 2363 2379 2422
2415 2425 2405 2425 2436 2427 2421 2396 2399 2398 2391 2385 2392 2400 2378 2386 2384 2385 2367 2377 2385 2379 2385 2387 2370 2373 2380 2370 2366 2374 2381 2367 2365 2372 2374 2367 2367 2369 2364 2364 2359 2361 2362 2358 2361 2363 2360 2351 2357 2349 2362 2360 2356 2363 2353 2355 2352 2365 2364 2359 2357 2360 2353 2354 2352 2349 2350 2349 2348 2358 2359 2345 2347 2350 2347 2367 2350 2342 2344 2346 2348 2361 2348 2354 2354 2355 2355 2356 2359 2350 2371 2356 2364 2347 2360 2350 2359 2348 2353 2353 2353 2353 2367 2354 2347 2350 2360 2361 2360 2355 2382 2368 2356 2351 2369 2378 2389 2391 2430 2436
2426 2401 2406 2412 2427 2423 2408 2392 2384 2394 2400 2385 2397 2381 2391 2378 2376 2379 2378 2381 2370 2377 2370 2374 2385 2375 2373 2370 2374 2367 2368 2365 2370 2378 2358 2364 2366 2356 2357 2367 2364 2366 2366 2363 2363 2361 2363 2361 2355 2359 2349 2354 2363 2357 2353 2356 2360 2348 2361 2359 2353 2361 2357 2357 2360 2347 2354 2355 2352 2354 2350 2356 2346 2354 2348 2359 2349 2397 2353 2350 2343 2349 2353 2365 2358 2356 2344 2358 2352 2358 2362 2351 2356 2354 2350 2352 2357 2351 2352 2353 2354 2361 2356 2362 2353 2359 2345 2358 2364 2345 2362 2374 2348 2367 2361 2350 2388 2364 2377 2393
2424 2420 2399 2405 2427 2394 2391 2384 2384 2387 2383 2371 2374 2380 2372 2375 2376 2362 2373 2368 2370 2361 2366 2370 2373 2365 2377 2358 2363 2353 2363 2363 2366 2369 2363 2367 2354 2369 2356 2361 2358 2353 2358 2362 2343 2357 2349 2355 2358 2356 2355 2355 2350 2352 2349 2343 2345 2345 2355 2351 2351 2357 2365 2360 2356 2351 2352 2343 2353 2349 2339 2354 2346 2342 2348 2349 2338 2344 2352 2351 2346 2350 2347 2348 2351 2350 2353 2349 2350 2351 2328 2344 2356 2343 2353 2355 2343 2349 2343 2341 2353 2353 2355 2363 2339 2356 2354 2338 2329 2343 2339 2334 2344 2330 2344 2345 2355 2343 2364 2336
2449 2412 2407 2395 2427 2421 2406 2402 2396 2388 2377 2380 2382 2374 2376 2383 2373 2387 2382 2378 2378 2368 2379 2358 2363 2370 2369 2371 2372 2363 2375 2364 2360 2369 2358 2368 2350 2366 2364 2352 2365 2357 2362 2356 2359 2357 2351 2357 2360 2351 2355 2356 2360 2356 2354 2352 2358 2353 2346 2358 2350 2356 2359 2355 2359 2358 2350 2351 2354 2354 2353 2352 2358 2352 2353 2346 2351 2353 2357 2351 2346 2348 2341 2357 2353 2352 2346 2350 2353 2348 2364 2361 2353 2349 2351 2350 2350 2355 2348 2359 2349 2359 2353 2349 2360 2359 2349 2342 2355 2347 2346 2350 2346 2355 2355 2350 2353 2365 2381 2418
2433 2441 2414 2401 2442 2403 2396 2389 2384 2392 2391 2382 2383 2371 2387 2389 2389 2373 2384 2381 2369 2377 2377 2375 2372 2373 2377 2369 2374 2374 2363 2370 2364 2363 2365 2368 2363 2360 2378 2365 2364 2363 2366 2345 2357 2359 2357 2341 2352 2355 2360 2351 2353 2354 2354 2351 2355 2360 2354 2352 2355 2357 2359 2351 2350 2356 2350 2360 2360 2351 2354 2349 2359 2337 2351 2352 2355 2350 2356 2353 2347 2355 2351 2357 2347 2350 2357 2360 2358 2356 2356 2349 2353 2352 2350 2346 2352 2345 2355 2356 2348 2351 2342 2341 2360 2353 2361 2348 2346 2359 2373 2355 2367 2331 2365 2337 2340 2352 2357 2353
2418 2390 2411 2412 2423 2405 2385 2390 2373 2390 2383 2388 2374 2374 2380 2366 2377 2366 2373 2379 2379 2366 2377 2366 2375 2374 2369 2363 2371 2361 2367 2373 2367 2363 2364 2354 2352 2363 2370 2354 2357 2367 2355 2359 2349 2353 2351 2355 2345 2349 2345 2353 2358 2351 2345 2352 2352 2348 2352 2357 2346 2355 2344 2352 2351 2347 2351 2342 2346 2342 2355 2348 2353 2350 2352 2356 2349 2339 2350 2345 2353 2351 2354 2349 2340 2348 2341 2341 2352 2351 2354 2349 2354 2350 2354 2347 2356 2349 2341 2360 2336 2350 2350 2346 2346 2353 2338 2339 2344 2364 2352 2331 2348 2336 2349 2340 2354 2335 2341 2344
2444 2411 2415 2410 2437 2420 2413 2405 2390 2417 2386 2396 2381 2377 2387 2390 2378 2376 2363 2394 2383 2371 2373 2371 2375 2375 2375 2372 2379 2367 2375 2370 2357 2373 2357 2362 2364 2364 2367 2358 2361 2364 2356 2361 2358 2356 2353 2362 2354 2356 2345 2358 2352 2353 2358 2358 2349 2349 2354 2355 2355 2358 2357 2352 2349 2355 2346 2362 2356 2342 2348 2354 2345 2344 2348 2351 2351 2357 2359 2357 2353 2339 2349 2364 2355 2350 2346 2366 2355 2358 2358 2353 2355 2348 2357 2352 2354 2346 2358 2345 2363 2350 2356 2356 2349 2354 2358 2352 2354 2366 2332 2349 2366 2357 2365 2358 2370 2379 2339 2368
2459 2448 2423 2409 2411 2401 2405 2405 2396 2400 2397 2403 2395 2384 2389 2379 2392 2379 2380 2400 2382 2384 2381 2374 2386 2371 2383 2379 2377 2374 2377 2377 2372 2369 2371 2359 2365 2359 2369 2365 2361 2371 2359 2362 2359 2366 2363 2361 2366 2358 2355 2351 2352 2361 2361 2357 2358 2352 2355 2357 2358 2364 2354 2353 2358 2355 2347 2361 2356 2355 2347 2354 2355 2361 2351 2360 2350 2359 2358 2353 2355 2352 2364 2357 2361 2356 2358 2353 2349 2356 2362 2360 2358 2361 2355 2363 2359 2354 2351 2353 2358 2352 2353 2364 2354 2361 2351 2344 2358 2356 2353 2360 2370 2357 2358 2344 2368 2349 2375 2363
2467 2404 2440 2411 2431 2404 2417 2403 2411 2402 2407 2393 2386 2374 2389 2387 2381 2386 2358 2387 2386 2383 2377 2373 2370 2379 2379 2381 2372 2368 2368 2364 2352 2369 2360 2358 2360 2366 2366 2369 2358 2357 2367 2356 2358 2355 2358 2354 2352 2342 2356 2359 2355 2349 2355 2349 2347 2356 2355 2351 2345 2359 2350 2343 2352 2346 2350 2355 2355 2356 2357 2356 2353 2337 2350 2348 2355 2359 2352 2347 2347 2352 2344 2349 2355 2346 2345 2350 2355 2356 2359 2345 2357 2350 2346 2351 2350 2347 2346 2346 2338 2347 2333 2350 2346 2345 2347 2339 2352 2344 2342 2356 2355 2336 2339 2356 2364 2368 2343 2350
2530 2473 2476 2490 2450 2458 2457 2412 2433 2418 2422 2399 2409 2410 2391 2395 2394 2375 2386 2387 2365 2384 2383 2378 2386 2373 2389 2375 2379 2372 2372 2367 2372 2350 2367 2352 2363 2360 2359 2357 2354 2349 2367 2352 2359 2360 2351 2358 2358 2358 2356 2362 2360 2361 2358 2354 2359 2357 2356 2353 2356 2359 2355 2341 2359 2350 2362 2356 2351 2352 2357 2357 2350 2352 2354 2359 2343 2354 2348 2347 2361 2351 2347 2352 2359 2342 2347 2356 2344 2354 2348 2351 2356 2355 2350 2360 2347 2354 2349 2338 2357 2343 2351 2353 2350 2349 2345 2352 2344 2333 2327 2346 2355 2366 2330 2338 2349 2361 2375 2359
2949 2931 2661 2578 2448 2538 2703 2523 2696 2600 2631 2595 2526 2586 2615 2519 2579 2478 2412 2502 2457 2527 2511 2454 2473 2477 2507 2482 2491 2474 2475 2399 2373 2367 2369 2358 2363 2364 2366 2362 2364 2362 2363 2353 2365 2355 2358 2357 2357 2357 2361 2359 2356 2356 2361 2371 2368 2360 2361 2360 2361 2357 2355 2351 2357 2359 2353 2354 2364 2354 2358 2353 2371 2356 2360 2357 2348 2356 2351 2356 2355 2367 2359 2362 2349 2351 2352 2365 2347 2368 2365 2361 2362 2377 2368 2359 2358 2356 2363 2371 2369 2348 2348 2359 2354 2361 2351 2358 2358 2380 2369 2361 2377 2355 2362 2384 2349 2348 2349 2391
2673 2519 2509 2458 2483 2478 2442 2448 2473 2445 2430 2446 2428 2404 2397 2418 2426 2398 2408 2395 2396 2409 2391 2302 2396 2411 2443 2420 2441 2460 2459 2393 2379 2375 2367 2362 2365 2365 2360 2363 2358 2359 2367 2366 2359 2365 2362 2352 2353 2351 2356 2357 2351 2358 2358 2350 2357 2357 2353 2344 2346 2363 2364 2349 2346 2355 2352 2350 2352 2352 2356 2354 2347 2355 2348 2351 2349 2349 2350 2354 2351 2361 2349 2363 2352 2350 2363 2349 2349 2349 2361 2358 2358 2346 2359 2361 2364 2360 2354 2361 2347 2353 2359 2356 2349 2361 2365 2361 2354 2368 2350 2377 2375 2376 2367 2364 2357 2387 2409 2376
3015 2883 2722 2759 2765 2839 2673 2626 2592 2615 2492 2584 2568 2496 2521 2481 2514 2522 2507 2462 2447 2436 2430 2451 2413 2446 2444 2432 2416 2425 2419 2403 2368 2365 2372 2368 2355 2351 2361 2354 2358 2364 2361 2357 2361 2347 2361 2351 2358 2357 2358 2355 2351 2354 2355 2358 2362 2352 2350 2350 2353 2352 2360 2357 2355 2355 2348 2355 2358 2347 2360 2355 2351 2353 2338 2349 2353 2350 2355 2345 2354 2355 2342 2359 2359 2350 2356 2352 2346 2352 2349 2357 2356 2374 2377 2387 2385 2368 2361 2392 2425 2401 2360 2372 2378 2354 2370 2397 2354 2390 2435 2398 2376 2384 2365 2372 2382 2353 2379 2399
2647 2586 2620 2543 2550 2582 2546 2533 2520 2526 2529 2527 2497 2509 2505 2525 2509 2501 2502 2512 2513 2515 2502 2504 2489 2518 2501 2486 2498 2510 2491 2474 2445 2382 2360 2361 2364 2374 2358 2368 2370 2359 2360 2358 2363 2358 2364 2350 2353 2360 2359 2357 2362 2356 2355 2354 2361 2357 2359 2358 2361 2358 2356 2358 2358 2360 2349 2355 2353 2359 2356 2354 2358 2363 2350 2357 2349 2359 2354 2356 2354 2369 2368 2357 2349 2352 2350 2361 2364 2358 2365 2370 2381 2381 2364 2381 2382 2365 2382 2370 2354 2375 2371 2363 2374 2369 2396 2393 2396 2413 2378 2399 2404 2383 2400 2439 2412 2420 2424 2434
2573 2563 2576 2523 2555 2550 2507 2515 2520 2508 2498 2510 2486 2488 2495 2518 2473 2480 2484 2503 2486 2469 2476 2466 2475 2470 2479 2468 2461 2462 2470 2451 2433 2374 2373 2360 2360 2364 2364 2364 2363 2356 2353 2359 2368 2353 2364 2357 2350 2356 2349 2357 2354 2361 2355 2356 2358 2351 2355 2345 2351 2362 2357 2348 2352 2348 2348 2357 2356 2344 2351 2351 2354 2345 2354 2360 2358 2344 2354 2340 2352 2350 2356 2363 2359 2357 2357 2357 2353 2351 2352 2410 2429 2391 2419 2404 2412 2417 2397 2416 2407 2410 2395 2411 2407 2382 2368 2406 2456 2435 2425 2386 2377 2398 2409 2395 2363 2435 2422 2457
2694 2709 2592 2553 2535 2535 2549 2565 2515 2516 2527 2516 2508 2494 2514 2545 2492 2479 2486 2496 2482 2477 2477 2466 2478 2464 2469 2466 2484 2476 2470 2470 2436 2379 2361 2361 2367 2362 2357 2360 2371 2361 2363 2354 2362 2358 2364 2357 2361 2353 2353 2351 2354 2356 2360 2345 2359 2361 2358 2362 2351 2363 2362 2362 2358 2358 2358 2355 2352 2348 2359 2347 2352 2349 2351 2357 2350 2352 2356 2359 2344 2352 2358 2361 2353 2349 2355 2364 2356 2350 2352 2441 2460 2456 2447 2461 2462 2463 2462 2474 2476 2464 2490 2457 2465 2460 2456 2473 2491 2478 2493 2515 2525 2513 2484 2502 2543 2550 0 0
2637 2584 2617 2542 2531 2523 2565 2530 2511 2528 2510 2506 2491 2509 2500 2513 2491 2474 2489 2500 2479 2482 2465 2471 2465 2470 2496 2472 2473 2457 2480 2456 2412 2382 2377 2360 2371 2361 2370 2368 2373 2362 2359 2363 2363 2359 2364 2362 2351 2366 2364 2357 2363 2366 2359 2359 2355 2360 2360 2357 2361 2361 2362 2358 2346 2362 2359 2356 2349 2357 2354 2358 2353 2350 2350 2368 2353 2356 2350 2349 2353 2356 2359 2369 2348 2366 2354 2362 2357 2362 2375 2455 2451 2446 2454 2447 2451 2457 2464 2453 2473 2463 2449 2477 2462 2454 2454 2458 2480 2453 2486 2486 2476 2478 2444 2479 2487 2467 2573 2542
2843 2817 2713 2592 2562 2568 2562 2517 2517 2542 2515 2500 2516 2507 2492 2499 2494 2496 2497 2493 2489 2486 2485 2480 2493 2478 2474 2480 2476 2470 2470 2466 2436 2370 2364 2360 2358 2367 2359 2367 2356 2359 2360 2367 2369 2363 2353 2367 2359 2360 2357 2363 2356 2357 2358 2349 2358 2351 2363 2366 2359 2356 2352 2360 2351 2361 2357 2351 2353 2350 2355 2344 2347 2352 2347 2354 2358 2361 2354 2349 2351 2349 2358 2354 2347 2353 2357 2354 2352 2359 2377 2399 2444 2446 2454 2437 2450 2451 2453 2453 2454 2457 2434 2449 2461 2439 2451 2468 2432 2442 2490 2441 2472 2482 2462 2449 2417 2482 2458 2558
0 3355 0 2796 2741 2748 2693 2671 2676 2617 2607 2593 2585 2570 2539 2576 2527 2512 2519 2532 2503 2510 2517 2504 2506 2515 2515 2491 2495 2486 2484 2501 2430 2376 2360 2367 2369 2364 2359 2371 2364 2365 2360 2360 2353 2362 2349 2356 2356 2352 2352 2351 2357 2350 2357 2355 2361 2353 2349 2352 2361 2360 2358 2349 2355 2359 2351 2350 2347 2351 2353 2350 2352 2352 2358 2347 2352 2351 2345 2367 2352 2360 2357 2347 2358 2355 2355 2362 2356 2362 2357 2417 2442 2444 2437 2447 2450 2440 2428 2448 2442 2454 2447 2435 2464 2457 2454 2468 2421 2449 2471 2469 2479 2485 2467 2445 2482 2499 2534 2601
3120 3102 3063 2806 2722 2738 2825 2780 2653 2670 2689 2660 2584 2597 2582 2565 2583 2571 2544 2626 2506 2556 2528 2543 2515 2508 2513 2500 2493 2506 2501 2461 2425 2385 2374 2376 2365 2369 2361 2356 2361 2364 2374 2367 2362 2373 2363 2363 2362 2362 2365 2362 2363 2360 2361 2358 2359 2364 2355 2360 2358 2362 2354 2354 2357 2352 2358 2366 2359 2360 2353 2352 2353 2360 2353 2359 2344 2351 2356 2363 2364 2365 2357 2362 2364 2361 2353 2346 2369 2360 2379 2443 2453 2456 2455 2466 2460 2469 2473 2468 2472 2454 2459 2454 2458 2458 2453 2462 2447 2458 2464 2477 2488 2484 2472 2465 2497 2559 2498 2586
2672 2589 2697 2531 2517 2555 2554 2543 2526 2543 2537 2543 2512 2503 2496 2486 2511 2506 2495 2520 2484 2495 2487 2510 2495 2487 2502 2488 2481 2486 2484 2478 2404 2386 2361 2377 2374 2365 2361 2361 2368 2362 2366 2365 2361 2356 2372 2360 2359 2360 2367 2361 2358 2364 2358 2350 2365 2358 2354 2359 2358 2363 2355 2356 2350 2352 2355 2348 2356 2364 2354 2358 2355 2352 2348 2351 2356 2354 2361 2359 2335 2359 2345 2362 2359 2367 2359 2362 2360 2358 2373 2422 2460 2465 2452 2471 2447 2485 2479 2514 2496 2493 2464 2476 2445 2481 2460 2486 2460 2516 2480 2468 2454 2465 2471 2501 2549 2484 2524 2625
2603 2614 2635 2523 2523 2519 2562 2531 2490 2496 2528 2526 2518 2495 2486 2526 2493 2483 2488 2483 2485 2488 2474 2480 2477 2486 2474 2468 2461 2468 2476 2476 2430 2372 2355 2364 2369 2349 2359 2354 2361 2358 2357 2352 2361 2352 2352 2347 2353 2347 2357 2363 2354 2360 2359 2356 2357 2349 2353 2353 2355 2356 2355 2350 2358 2353 2347 2352 2349 2352 2347 2342 2357 2349 2348 2352 2349 2350 2351 2348 2354 2349 2355 2350 2347 2344 2350 2360 2364 2350 2367 2407 2431 2409 2430 2447 2452 2450 2472 2462 2482 2467 2469 2450 2448 2454 2439 2475 2456 2445 2497 2405 2473 2514 2475 2420 2475 0 0 0
2574 2639 2728 2573 2535 2579 2582 2530 2514 2523 2536 2573 2526 2516 2513 2497 2503 2487 2491 2512 2507 2495 2490 2489 2480 2482 2482 2509 2486 2476 2470 2463 2413 2383 2377 2370 2365 2362 2366 2359 2371 2359 2356 2364 2355 2356 2359 2362 2362 2364 2357 2364 2353 2359 2356 2361 2357 2351 2355 2355 2359 2356 2362 2348 2356 2358 2350 2357 2364 2350 2351 2350 2358 2355 2356 2351 2355 2354 2350 2354 2348 2358 2357 2356 2360 2350 2356 2358 2353 2361 2368 2435 2452 2454 2449 2453 2450 2469 2461 2472 2472 2460 2479 2476 2469 2455 2490 2446 2508 2474 2486 2537 2499 2522 2521 2449 2483 2630 0 0
2606 2608 2725 2536 2524 2521 2534 2553 2511 2507 2535 2493 2502 2494 2482 2501 2498 2508 2496 2502 2490 2487 2490 2473 2486 2472 2477 2488 2486 2483 2481 2462 2420 2365 2363 2363 2368 2375 2365 2365 2364 2370 2360 2365 2362 2363 2358 2366 2366 2353 2354 2354 2362 2370 2362 2361 2357 2366 2359 2355 2363 2370 2366 2359 2352 2350 2356 2354 2358 2357 2349 2358 2354 2355 2349 2363 2355 2361 2352 2347 2352 2350 2352 2344 2359 2366 2355 2359 2366 2365 2380 2434 2446 2461 2457 2455 2454 2471 2461 2437 2440 2455 2457 2444 2457 2448 2434 2439 2471 2448 2463 2455 2485 2479 2480 2468 2472 2449 2566 2486
2844 2851 2843 2689 2598 2548 2554 2537 2544 2539 2531 2563 2511 2534 2506 2517 2502 2512 2501 2488 2492 2485 2476 2466 2474 2473 2496 2472 2466 2470 2471 2467 2419 2371 2361 2359 2358 2368 2357 2357 2363 2361 2356 2359 2357 2357 2351 2349 2358 2351 2357 2345 2350 2349 2353 2352 2360 2359 2347 2347 2350 2358 2354 2357 2350 2354 2347 2350 2349 2346 2357 2351 2346 2356 2342 2344 2344 2350 2348 2345 2351 2348 2348 2357 2348 2350 2355 2346 2359 2351 2353 2406 2430 2425 2412 2423 2419 2415 2451 2395 2415 2426 2430 2421 2439 2425 2422 2461 2451 2453 2471 2456 2398 2460 2477 2465 2439 2491 2503 2485
3097 3081 3227 2903 2739 2766 2832 2835 2665 2615 2665 2663 2609 2590 2539 2592 2564 2573 2558 2562 2565 2531 2509 2535 2518 2526 2514 2509 2537 2500 2481 2474 2422 2375 2377 2370 2374 2373 2360 2366 2365 2364 2365 2357 2358 2359 2366 2358 2362 2357 2353 2357 2362 2358 2359 2369 2358 2354 2359 2360 2351 2370 2351 2354 2356 2352 2355 2354 2354 2352 2353 2361 2354 2354 2359 2352 2360 2357 2360 2368 2348 2356 2363 2353 2360 2363 2355 2370 2361 2369 2384 2432 2449 2457 2442 2434 2465 2444 2445 2467 2454 2445 2450 2431 2447 2414 2461 2448 2473 2450 2469 2485 2478 2456 2467 2419 2525 2508 2623 2581
2708 2687 2793 2684 2588 2633 2692 2615 2608 2558 2564 2554 2551 2566 2540 2585 2528 2530 2570 2474 2542 2522 2525 2474 2510 2485 2507 2463 2488 2477 2489 2482 2386 2372 2371 2374 2367 2362 2357 2365 2367 2366 2365 2354 2353 2370 2357 2357 2370 2356 2361 2358 2367 2357 2357 2360 2358 2354 2365 2356 2355 2367 2368 2359 2350 2357 2355 2355 2353 2348 2354 2358 2358 2351 2353 2355 2355 2363 2350 2350 2356 2356 2353 2358 2348 2354 2364 2350 2374 2359 2381 2444 2452 2452 2445 2419 2453 2453 2457 2450 2457 2460 2449 2446 2438 2451 2453 2457 2464 2459 2447 2479 2460 2459 2454 2461 2451 2464 2447 2489
2549 2556 2589 2528 2520 2513 2533 2514 2501 2506 2518 2516 2492 2497 2508 2519 2485 2490 2494 2491 2491 2505 2504 2491 2469 2468 2483 2486 2468 2472 2481 2457 2385 2376 2366 2366 2360 2363 2366 2359 2360 2365 2366 2370 2358 2356 2359 2355 2356 2359 2361 2358 2354 2365 2350 2350 2356 2358 2351 2356 2359 2350 2360 2356 2350 2360 2346 2350 2350 2353 2354 2362 2343 2349 2353 2344 2343 2341 2340 2356 2343 2353 2362 2354 2352 2355 2351 2357 2351 2353 2350 2413 2451 2427 2453 2472 2473 2451 2496 2469 2482 2475 2477 2465 2449 2454 2448 2491 2477 2472 2490 2438 2450 2446 2469 2487 2572 2568 0 0
2654 2596 2532 2543 2539 2540 2534 2527 2525 2515 2528 2527 2502 2516 2505 2512 2495 2491 2509 2522 2508 2506 2500 2481 2481 2495 2495 2496 2471 2480 2484 2463 2412 2376 2369 2364 2378 2363 2376 2367 2368 2363 2359 2360 2366 2366 2352 2361 2357 2359 2356 2365 2363 2363 2353 2352 2352 2350 2354 2373 2357 2367 2363 2361 2355 2358 2350 2352 2348 2352 2359 2354 2353 2352 2349 2357 2356 2361 2356 2355 2356 2353 2355 2354 2354 2364 2357 2353 2346 2361 2368 2382 2452 2448 2461 2420 2469 2490 2468 2482 2500 2515 2480 2451 2481 2477 2477 2523 2522 2517 2592 2555 2552 2637 2639 0 0 0 0 0
2611 2629 2551 2535 2507 2507 2604 2538 2520 2505 2547 2515 2514 2488 2490 2502 2470 2500 2470 2475 2478 2468 2485 2467 2472 2489 2484 2499 2478 2478 2461 2470 2393 2375 2372 2374 2372 2370 2366 2367 2367 2370 2374 2362 2358 2358 2357 2371 2360 2365 2359 2363 2353 2358 2362 2356 2358 2359 2364 2358 2356 2365 2361 2362 2350 2363 2353 2355 2357 2361 2357 2353 2355 2358 2359 2360 2354 2348 2348 2354 2354 2358 2351 2358 2357 2361 2352 2355 2353 2360 2393 2434 2442 2443 2431 2453 2451 2458 2455 2446 2454 2458 2435 2432 2471 2443 2463 2463 2496 2496 2460 2451 2521 2483 2467 2547 2568 2530 2492 0
2591 2579 2584 2524 2511 2528 2510 2518 2518 2508 2531 2503 2496 2489 2488 2493 2477 2480 2490 2498 2473 2481 2496 2472 2469 2466 2454 2446 2475 2470 2454 2442 2389 2380 2371 2363 2364 2362 2367 2363 2368 2362 2364 2367 2366 2361 2360 2362 2354 2354 2362 2358 2353 2359 2358 2360 2360 2350 2357 2352 2358 2365 2356 2352 2361 2349 2359 2355 2356 2353 2345 2342 2352 2348 2350 2356 2356 2352 2353 2359 2352 2356 2353 2354 2346 2357 2362 2350 2351 2357 2384 2428 2441 2458 2448 2449 2449 2432 2439 2443 2453 2442 2444 2448 2443 2453 2442 2469 2466 2456 2468 2450 2442 2467 2424 2466 2444 2468 2423 2602
2860 2804 2892 2668 2611 2597 2676 2575 2564 2562 2547 2538 2542 2526 2544 2520 2504 2494 2488 2526 2495 2498 2503 2523 2472 2500 2472 2489 2480 2469 2469 2459 2416 2380 2375 2372 2373 2367 2366 2361 2366 2365 2362 2364 2358 2360 2365 2361 2352 2353 2351 2360 2362 2360 2358 2351 2364 2357 2357 2356 2363 2363 2358 2359 2357 2349 2359 2354 2352 2350 2350 2353 2345 2355 2359 2348 2355 2356 2346 2350 2351 2353 2358 2356 2359 2355 2348 2356 2362 2363 2377 2416 2408 2437 2435 2431 2439 2437 2445 2451 2474 2438 2436 2417 2419 2441 2453 2430 2440 2432 2445 2481 2454 2442 2477 2469 2532 2506 2521 2681
0 0 0 2933 2841 2841 2890 2771 2721 2685 2738 2789 2680 2643 2627 2657 2581 2585 2570 2592 2569 2563 2569 2620 2528 2553 2548 2514 2488 2490 2508 2504 2411 2389 2376 2370 2387 2380 2373 2382 2368 2367 2371 2375 2366 2368 2376 2376 2365 2372 2360 2365 2361 2366 2366 2362 2361 2358 2356 2357 2363 2367 2369 2366 2358 2362 2358 2363 2359 2358 2364 2364 2367 2364 2360 2369 2362 2352 2360 2360 2367 2366 2366 2358 2370 2361 2362 2371 2374 2371 2403 2442 2447 2451 2440 2463 2438 2471 2441 2466 2468 2479 2447 2452 2459 2450 2437 2468 2469 2471 2439 2485 2482 2462 2505 2548 2518 2537 2523 2618
2856 2718 2613 2558 2554 2561 2530 2604 2542 2600 2600 2598 2550 2508 2518 2618 2554 2532 2555 2516 2536 2530 2527 2504 2511 2464 2487 2487 2473 2480 2461 2513 2375 2375 2378 2375 2374 2365 2367 2374 2364 2369 2365 2368 2373 2369 2368 2364 2370 2355 2365 2369 2364 2355 2359 2357 2358 2361 2366 2354 2360 2369 2363 2356 2356 2355 2353 2356 2364 2345 2352 2352 2350 2357 2360 2361 2358 2352 2360 2358 2359 2359 2352 2359 2368 2356 2350 2366 2353 2360 2378 2452 2465 2449 2471 2460 2467 2457 2450 2448 2454 2477 2458 2441 2444 2457 2457 2470 2461 2457 2462 2467 2478 2468 2455 2442 2424 2430 2499 2502
3033 2773 2636 2535 2461 2554 2611 2598 2445 2513 2506 2514 2485 2469 2465 2463 2477 2443 2436 2422 2402 2430 2400 2448 2409 2423 2394 2419 2397 2402 2417 2396 2382 2378 2386 2374 2382 2374 2375 2360 2373 2378 2366 2371 2358 2366 2360 2365 2363 2361 2361 2357 2360 2357 2362 2360 2363 2351 2374 2351 2363 2364 2363 2359 2359 2365 2361 2355 2362 2355 2361 2361 2364 2357 2355 2363 2358 2356 2362 2358 2349 2362 2360 2357 2353 2352 2364 2354 2363 2367 2375 2445 2475 2496 2492 2489 2493 2490 2478 2504 2483 2489 2475 2477 2478 2478 2454 2442 2536 2518 2513 2506 2504 2544 2679 2781 2744 2720 0 0
2612 2494 2464 2486 2478 2497 2568 2521 2481 2479 2523 2579 2628 2522 2548 2582 2589 2454 2463 2487 2519 2679 2576 2602 2517 2593 2685 2576 2538 2600 2481 2398 2391 2386 2382 2381 2387 2388 2380 2375 2389 2378 2373 2374 2375 2370 2377 2367 2381 2375 2374 2366 2382 2373 2365 2367 2372 2362 2363 2355 2372 2360 2359 2370 2370 2373 2365 2355 2360 2362 2363 2364 2370 2367 2364 2364 2367 2366 2369 2358 2370 2365 2366 2371 2365 2369 2358 2368 2354 2372 2393 2471 2455 2514 2495 2505 2485 2514 2489 2594 2491 2500 2495 2506 2548 2525 2514 2586 2553 2535 2420 2745 2655 2599 0 0 0 0 0 0
2508 2471 2485 2444 2437 2448 2438 2436 2428 2410 2421 2433 2429 2421 2414 2404 2410 2410 2412 2386 2424 2422 2429 2398 2412 2401 2421 2413 2394 2417 2403 2387 2393 2380 2383 2367 2375 2369 2377 2373 2371 2372 2375 2371 2375 2375 2364 2359 2367 2364 2356 2356 2362 2355 2374 2377 2363 2363 2362 2357 2368 2367 2364 2358 2362 2352 2361 2365 2363 2364 2365 2361 2363 2358 2363 2362 2355 2360 2357 2363 2356 2355 2358 2353 2367 2358 2362 2366 2360 2366 2357 2368 2356 2381 2370 2362 2374 2379 2371 2337 2389 2377 2387 2373 2411 2386 2401 2412 2392 2399 2374 2394 2421 2388 2385 2415 2395 2414 2389 0
2536 2467 2440 2440 2433 2443 2422 2440 2429 2407 2414 2438 2413 2414 2405 2420 2427 2416 2413 2408 2389 2397 2398 2398 2401 2415 2394 2397 2385 2396 2400 2398 2381 2389 2391 2379 2381 2385 2370 2375 2382 2386 2377 2373 2381 2372 2364 2369 2366 2363 2363 2371 2362 2364 2370 2363 2369 2364 2366 2362 2367 2372 2360 2369 2369 2361 2363 2359 2361 2367 2366 2362 2369 2365 2364 2365 2357 2364 2355 2355 2363 2364 2368 2362 2355 2360 2362 2368 2367 2361 2372 2370 2351 2398 2373 2391 2413 2377 2381 2373 2409 2408 2405 2415 2378 2408 2399 2431 2411 2441 2416 2494 2458 2490 2468 0 2525 2481 2445 0
2490 2461 2452 2431 2459 2413 2436 2429 2417 2428 2430 2418 2419 2407 2412 2406 2410 2412 2409 2415 2411 2402 2408 2402 2400 2391 2397 2394 2388 2397 2399 2388 2392 2390 2385 2379 2384 2384 2391 2382 2372 2389 2379 2373 2375 2378 2382 2377 2375 2369 2363 2369 2370 2375 2366 2372 2363 2370 2359 2382 2361 2371 2371 2381 2369 2371 2369 2377 2379 2376 2365 2362 2368 2358 2373 2374 2366 2376 2373 2363 2360 2375 2368 2363 2378 2370 2365 2370 2375 2364 2371 2364 2374 2383 2374 2372 2396 2406 2392 2389 2394 2417 2388 2396 2383 2383 2368 2382 2404 2406 2398 2405 2405 2438 2409 2377 2471 2508 2495 2507
2465 2429 2434 2427 2411 2424 2408 2404 2408 2406 2415 2399 2389 2399 2394 2399 2398 2383 2394 2390 2381 2401 2385 2397 2396 2404 2385 2387 2385 2385 2373 2386 2374 2378 2383 2373 2379 2388 2373 2376 2373 2362 2372 2373 2369 2362 2373 2362 2376 2360 2365 2362 2363 2358 2361 2374 2371 2369 2362 2365 2373 2375 2368 2365 2359 2369 2351 2356 2363 2362 2366 2363 2362 2361 2360 2360 2359 2348 2364 2349 2368 2368 2363 2370 2361 2370 2362 2371 2385 2368 2383 2358 2358 2359 2367 2376 2374 2365 2367 2371 2371 2377 2373 2369 2359 2364 2370 2368 2358 2382 2362 2384 2387 2416 2387 2383 2408 2396 2450 2430
2468 2487 2449 2457 2434 2414 2429 2413 2412 2419 2418 2403 2407 2404 2406 2405 2399 2399 2401 2389 2397 2388 2390 2392 2388 2397 2388 2393 2394 2389 2389 2392 2382 2394 2373 2378 2386 2370 2374 2383 2366 2378 2378 2373 2369 2378 2371 2369 2363 2370 2374 2366 2366 2362 2362 2362 2368 2367 2363 2351 2364 2374 2370 2356 2357 2366 2369 2377 2373 2361 2368 2370 2366 2360 2354 2359 2371 2369 2359 2370 2374 2367 2363 2356 2359 2363 2357 2368 2367 2384 2356 2368 2368 2362 2372 2359 2369 2366 2369 2385 2379 2372 2382 2386 2365 2364 2367 2373 2385 2376 2374 2375 2409 2389 2399 2384 2399 2450 2451 2571
2473 2475 2478 2442 2473 2436 2452 2421 2421 2425 2427 2415 2394 2404 2401 2411 2399 2416 2404 2399 2395 2407 2391 2412 2412 2407 2406 2398 2394 2396 2406 2404 2386 2393 2388 2386 2377 2387 2379 2383 2394 2373 2380 2379 2382 2377 2370 2378 2366 2367 2370 2374 2382 2376 2367 2370 2372 2364 2371 2364 2374 2369 2383 2376 2372 2372 2363 2372 2373 2374 2363 2357 2375 2371 2371 2369 2376 2371 2368 2371 2369 2367 2368 2363 2368 2364 2378 2372 2368 2385 2374 2367 2364 2384 2362 2365 2380 2375 2374 2390 2375 2371 2361 2385 2384 2376 2381 2378 2371 2376 2387 2375 2408 2424 2396 2432 2468 2500 2481 2552
2506 2468 2475 2466 2474 2437 2428 2424 2419 2412 2439 2421 2412 2391 2397 2402 2412 2406 2387 2392 2385 2404 2384 2414 2401 2401 2389 2391 2394 2389 2385 2388 2401 2392 2382 2390 2381 2379 2377 2376 2383 2383 2380 2381 2372 2369 2362 2377 2370 2377 2365 2372 2365 2375 2371 2372 2369 2374 2361 2368 2373 2384 2361 2364 2371 2355 2370 2369 2372 2357 2367 2357 2367 2373 2373 2363 2368 2367 2372 2373 2376 2380 2360 2353 2368 2390 2368 2367 2362 2359 2358 2376 2367 2363 2380 2365 2367 2375 2359 2365 2371 2364 2371 2367 2371 2360 2359 2351 2372 2367 2360 2349 2378 2407 2385 2363 2434 2425 2437 2497
2469 2465 2444 2464 2494 2421 2410 2428 2411 2394 2415 2414 2403 2409 2397 2392 2393 2398 2392 2395 2395 2392 2396 2387 2378 2377 2381 2378 2367 2383 2375 2370 2392 2384 2363 2382 2363 2379 2365 2360 2375 2361 2366 2366 2367 2368 2370 2374 2373 2353 2362 2359 2370 2363 2368 2361 2365 2361 2366 2346 2354 2359 2350 2369 2358 2349 2358 2362 2355 2365 2367 2366 2361 2355 2353 2358 2358 2357 2359 2359 2361 2370 2356 2356 2351 2364 2371 2363 2364 2365 2358 2382 2358 2366 2370 2363 2368 2346 2383 2372 2370 2353 2365 2362 2360 2366 2355 2364 2365 2358 2378 2387 2359 2376 2387 2411 2431 2493 2422 2465
2529 2471 2490 2462 2490 2461 2442 2444 2427 2419 2405 2420 2419 2405 2416 2392 2414 2383 2402 2409 2393 2397 2398 2414 2383 2397 2392 2371 2386 2401 2394 2385 2391 2390 2387 2374 2364 2390 2388 2374 2365 2373 2383 2373 2374 2371 2367 2369 2368 2365 2368 2377 2368 2365 2361 2364 2375 2365 2358 2351 2364 2370 2363 2350 2364 2356 2362 2360 2357 2354 2372 2372 2360 2362 2363 2367 2367 2368 2371 2356 2384 2354 2367 2368 2366 2346 2370 2362 2366 2366 2363 2365 2371 2359 2360 2365 2363 2368 2369 2377 2369 2377 2369 2366 2366 2372 2359 2377 2367 2364 2376 2396 2381 2378 2412 2396 2434 2524 2544 2588
2540 2482 2432 2467 2521 2458 2446 2416 2407 2414 2423 2426 2416 2398 2405 2404 2403 2418 2399 2388 2399 2383 2386 2398 2396 2391 2392 2405 2390 2398 2390 2404 2387 2385 2368 2383 2377 2382 2375 2392 2394 2377 2372 2377 2375 2375 2372 2369 2377 2366 2372 2370 2379 2353 2361 2362 2351 2369 2362 2343 2374 2366 2359 2370 2375 2357 2363 2360 2361 2372 2364 2356 2364 2358 2349 2361 2367 2357 2373 2359 2363 2366 2361 2360 2362 2369 2366 2365 2371 2379 2358 2363 2360 2369 2365 2372 2346 2376 2363 2361 2354 2364 2374 2373 2374 2361 2363 2358 2349 2369 2365 2375 2369 2371 2388 2464 2420 2448 2441 2440
2611 2478 2451 2456 2475 2417 2422 2417 2405 2386 2409 2419 2408 2404 2389 2401 2387 2404 2406 2394 2398 2397 2387 2373 2385 2373 2388 2399 2376 2370 2385 2390 2383 2368 2388 2377 2363 2359 2373 2364 2374 2372 2360 2357 2370 2365 2359 2364 2376 2364 2355 2348 2353 2356 2357 2357 2354 2351 2359 2359 2352 2370 2346 2365 2361 2362 2347 2355 2357 2366 2352 2349 2350 2350 2358 2340 2364 2361 2352 2355 2348 2348 2345 2361 2343 2366 2371 2358 2353 2375 2369 2335 2342 2362 2353 2348 2368 2369 2365 2355 2339 2356 2346 2367 2361 2352 2368 2358 2357 2353 2370 2357 2364 2384 2348 2404 2366 2401 2466 2410
2776 2617 2511 2558 2543 2507 2507 2433 2454 2438 2448 2480 2417 2437 2413 2412 2418 2420 2411 2412 2406 2400 2408 2383 2392 2391 2383 2404 2407 2412 2408 2395 2400 2384 2382 2395 2398 2370 2359 2388 2384 2388 2357 2373 2390 2380 2367 2360 2380 2357 2368 2359 2369 2368 2365 2357 2362 2360 2364 2359 2377 2365 2384 2369 2373 2364 2369 2366 2368 2370 2376 2372 2359 2348 2358 2365 2354 2358 2369 2355 2355 2374 2344 2364 2361 2375 2356 2370 2377 2351 2371 2355 2360 2373 2366 2378 2390 2395 2366 2381 2377 2385 2367 2389 2392 2376 2367 2374 2377 2370 2399 2410 2429 2358 2431 2515 2428 2671 2621 2597
2635 2575 2565 2528 2509 2494 2433 2439 2415 2427 2411 2418 2448 2431 2418 2397 2419 2412 2387 2401 2410 2384 2375 2390 2404 2371 2366 2413 2391 2396 2400 2398 2372 2380 2381 2395 2390 2387 2395 2365 2369 2348 2379 2375 2357 2360 2360 2373 2364 2374 2359 2368 2354 2357 2377 2367 2358 2365 2362 2368 2365 2369 2367 2360 2356 2352 2351 2368 2356 2357 2345 2361 2347 2347 2354 2364 2368 2364 2364 2362 2351 2350 2372 2373 2381 2355 2369 2359 2360 2371 2363 2389 2349 2373 2350 2367 2361 2363 2358 2368 2353 2376 2374 2372 2355 2372 2369 2362 2348 2383 2370 2397 2418 2431 2445 2439 2437 2678 2594 2613
2735 2683 2552 2493 2547 2509 2480 2421 2412 2428 2409 2428 2457 2416 2391 2409 2410 2396 2394 2404 2389 2400 2390 2384 2367 2364 2410 2378 2378 2380 2389 2370 2386 2351 2366 2378 2366 2347 2363 2369 2350 2354 2363 2349 2378 2367 2368 2354 2372 2372 2356 2344 2363 2363 2357 2363 2347 2346 2358 2353 2355 2356 2355 2361 2365 2358 2338 2328 2352 2341 2338 2351 2339 2362 2365 2344 2350 2347 2340 2347 2348 2348 2357 2359 2341 2340 2361 2333 2359 2353 2370 2359 2373 2343 2364 2343 2355 2335 2369 2354 2368 2357 2342 2357 2356 2345 2376 2332 2375 2388 2342 2384 2370 2361 2398 2474 2552 0 0 0
2927 2730 2705 2590 2701 2667 2605 2502 2497 2524 2434 2482 2475 2444 2510 2422 2433 2401 2422 2429 2421 2424 2430 2407 2384 2416 2404 2387 2382 2387 2390 2379 2412 2410 2355 2388 2409 2393 2369 2354 2369 2381 2374 2374 2360 2389 2353 2361 2365 2361 2363 2379 2381 2375 2350 2358 2384 2360 2337 2357 2390 2379 2359 2362 2357 2365 2391 2353 2362 2379 2371 2353 2352 2371 2365 2350 2361 2344 2345 2371 2371 2349 2386 2361 2363 2370 2357 2341 2373 2352 2357 2365 2338 2406 2378 2352 2360 2362 2375 2372 2381 2384 2375 2370 2392 2380 2365 2375 2411 2393 2386 2491 2446 2566 2491 2592 0 0 0 0
3027 2980 2750 2650 2782 2663 2758 2644 2527 2499 2493 2527 2449 2482 2452 2412 2453 2404 2409 2424 2425 2423 2429 2417 2412 2420 2439 2402 2401 2393 2424 2380 2409 2376 2391 2402 2361 2395 2369 2389 2369 2403 2381 2370 2366 2344 2369 2359 2376 2355 2370 2374 2383 2343 2348 2358 2372 2385 2364 2376 2394 2392 2371 2352 2385 2385 2367 2363 2349 2371 2364 2343 2388 2357 2342 2372 2378 2359 2376 2388 2375 2372 2370 2363 2378 2362 2364 2369 2371 2389 2405 2358 2374 2407 2379 2352 2360 2374 2371 2356 2374 2367 2407 2396 2365 2364 2369 2371 2401 2380 2496 2408 2485 2551 2590 2731 0 0 0 0
3364 3075 2891 2758 2936 2853 0 0 2532 2491 2498 2502 2430 2455 2446 2425 2429 2422 2440 2392 2391 2467 2411 2400 2403 2388 2405 2406 2418 2414 2395 2376 2400 2362 2380 2367 2385 2387 2374 2377 2379 2364 2362 2358 2345 2356 2353 2359 2366 2357 2364 2361 2350 2385 2366 2363 2357 2355 2370 2366 2329 2376 2333 2383 2357 2375 2345 2362 2342 2350 2341 2355 2331 2308 2321 2375 2363 2364 2363 2373 2354 2354 2348 2375 2329 2372 2371 2362 2359 2344 2360 2362 2364 2355 2350 2392 2380 2375 2358 2374 2353 2362 2379 2378 2409 2380 2371 2326 2416 2382 2389 2483 2462 2569 2579 2638 0 0 0 0
3759 3351 3362 3086 0 0 0 0 2890 2647 2506 2497 2466 2496 2529 2478 2512 2467 2406 2430 2476 2495 2457 2434 2433 2412 2390 2387 2430 2402 2430 2418 2450 2435 2406 2393 2379 2426 2397 2372 2373 2411 2381 2374 2411 2379 2387 2387 2344 2362 2354 2341 2333 2355 2367 2381 2382 2361 2384 2346 2339 2376 2374 2379 2374 2369 2338 2358 2364 2375 2356 2346 2372 2362 2321 2368 2354 2348 2348 2369 2366 2391 2388 2363 2379 2371 2356 2397 2361 2432 2401 2353 2376 2381 2354 2370 2364 2374 2411 2380 2413 2349 2422 2386 2432 2370 2365 2381 2352 2435 2406 2574 2699 2468 2773 0 0 0 0 0
3974 3732 0 0 0 0 0 3002 0 0 2654 2620 2628 2880 2578 2502 2570 2548 2515 2522 2384 2501 2485 2522 2496 2454 2479 2440 2486 2462 2476 2474 2511 2412 2416 2412 2418 2421 2417 2391 2409 2394 2419 2426 2366 2351 2360 2373 2432 2393 2405 2393 2400 2389 2406 2361 2392 2393 2352 2345 2385 2407 2426 2370 2370 2384 2342 2383 2390 2337 2390 2382 2354 2377 2367 2392 2403 2419 2379 2376 2390 2371 2410 2440 2413 2394 2387 2387 2392 2420 2431 2415 2348 2379 2380 2390 2421 2401 2372 2411 2421 2473 2441 2371 2433 2413 2412 2432 2402 2477 2621 2692 2609 2743 0 0 0 0 0 0
4090 3933 3419 0 3962 0 0 0 0 0 0 2714 0 0 0 2588 2734 2535 2564 2470 2512 2430 2538 2469 2456 2524 2399 2355 2447 2414 2416 2409 2462 2466 2386 2385 2349 2338 2363 2356 2363 2358 2323 2375 2322 2375 2332 2400 2393 2399 2381 2355 2362 2374 2328 2381 2391 2373 2359 2385 2341 2392 2310 2339 2435 2347 2400 2298 2356 2321 2392 2370 2321 2408 2364 2359 2302 2434 2396 2358 2378 2365 2425 2345 2359 2359 2389 2394 2381 2360 2356 2363 2414 2431 2413 2369 2362 2375 2394 2403 2429 2423 2409 2375 2425 2411 2412 2415 2451 2515 2418 2458 2638 0 0 0 0 0 0 0
