0 0 2783 2741 2906 0 0 0 0 0 0 2728 2662 2673 2446 2435 2566 2440 2454 2401 2394 2404 2423 2463 2398 2398 2470 2397 2377 2376 2370 2415 2453 2383 2360 2398 2361 2385 2396 2369 2365 2369 2312 2336 2351 2364 2346 2348 2438 0 0 2498 2460 0 0 2373 2361 2383 2351 2351 2345 2367 2325 2333 2338 2323 2327 2395 2355 2333 2333 2366 2334 2320 2337 2336 2329 2355 2334 2342 2373 2373 2337 2350 2342 2350 2329 2333 2315 2349 2360 2336 2390 2328 2401 2371 2458 2325 2377 2464 2327 2435 2339 2344 2344 2406 2350 2384 2360 2356 2530 0 0 0 0 0 0 0 0 0
0 0 2817 2746 0 2899 2796 2696 0 2566 2730 2633 2642 2456 2461 2427 2452 2423 2452 2396 2375 2433 2409 2427 2444 2402 2363 2467 2401 2367 2383 2388 2356 2349 2442 2465 2324 2378 2310 2351 2340 2343 2355 2375 2272 2371 2336 2271 2401 0 0 2433 2446 0 0 2332 2309 2319 2346 2324 2353 2342 2348 2351 2353 2333 2339 2355 2329 2340 2318 2329 2323 2346 2352 2345 2331 2301 2340 2333 2329 2306 2315 2350 2355 2355 2313 2338 2332 2350 2359 2366 2310 2378 2377 2427 2433 2357 2332 2350 2400 2329 2365 2343 2341 2338 2400 2412 2384 2508 2358 2381 0 0 0 0 0 0 0 0
0 2830 2651 2714 2628 2573 2639 2474 2482 2538 2467 2572 2494 2492 2438 2447 2420 2426 2445 2409 2407 2417 2360 2391 2387 2419 2373 2329 2352 2376 2361 2389 2391 2398 2350 2404 2418 2334 2358 2355 2354 2379 2374 2356 2337 2373 2341 2369 2342 2367 0 2404 2444 2397 2346 2357 2323 2366 2362 2315 2321 2346 2317 2342 2319 2343 2349 2315 2367 2337 2325 2345 2366 2358 2360 2318 2368 2306 2342 2344 2341 2355 2342 2348 2353 2330 2332 2348 2336 2314 2345 2357 2358 2364 2377 2387 2379 2347 2395 2346 2356 2367 2353 2387 2362 2379 2393 2380 2415 0 2394 2413 2428 2394 0 0 0 0 0 0
0 2636 2725 2659 2609 2468 2464 2470 2541 2445 2471 2455 2436 2425 2390 2435 2433 2413 2450 2394 2374 2382 2382 2385 2362 2360 2345 2345 2349 2339 2386 2349 2357 2368 2363 2370 2364 2330 2343 2361 2339 2348 2327 2366 2359 2349 2355 2330 2345 2362 2307 2339 2339 2331 2327 2326 2350 2352 2318 2343 2323 2322 2354 2351 2335 2337 2352 2362 2336 2358 2327 2306 2335 2343 2331 2310 2361 2320 2306 2298 2290 2322 2344 2342 2350 2342 2355 2352 2329 2326 2310 2315 2334 2334 2367 2321 2343 2347 2354 2317 2379 2309 2321 2337 2339 2361 2346 2313 2408 2317 2359 2333 2339 2361 2483 0 0 0 0 0
2732 2661 2729 2536 2548 2496 2481 2484 2497 2455 2389 2437 2452 2428 2417 2420 2398 2415 2401 2363 2418 2405 2366 2412 2389 2387 2380 2361 2384 2368 2380 2376 2333 2357 2370 2365 2381 2353 2380 2399 2351 2348 2326 2338 2360 2350 2337 2345 2350 2367 2337 2345 2341 2324 2333 2327 2348 2318 2331 2330 2342 2348 2343 2356 2349 2353 2343 2367 2339 2351 2325 2325 2362 2344 2349 2332 2332 2350 2337 2335 2375 2339 2329 2346 2346 2374 2359 2365 2338 2341 2373 2338 2350 2377 2376 2326 2373 2367 2378 2375 2352 2339 2326 2375 2347 2338 2358 2353 2357 2370 2358 2336 2375 2399 2398 2615 0 0 0 0
2642 2593 2477 2477 2440 2403 2385 2465 2446 2497 2410 2411 2442 2440 2400 2406 2402 2373 2398 2379 2384 2376 2371 2387 2381 2407 2378 2364 2383 2347 2372 2372 2342 2366 2374 2355 2384 2360 2370 2371 2370 2362 2340 2339 2364 2361 2339 2366 2351 2333 2339 2338 2349 2341 2333 2327 2355 2347 2331 2333 2343 2350 2350 2332 2369 2342 2352 2345 2343 2353 2332 2350 2331 2374 2356 2322 2344 2343 2341 2351 2328 2344 2337 2345 2333 2362 2317 2346 2347 2359 2341 2312 2329 2341 2344 2349 2357 2354 2358 2368 2354 2372 2366 2407 2335 2330 2341 2323 2362 2347 2370 2368 2348 2371 2350 2394 2481 0 0 0
2524 2631 2536 2504 2418 2450 2423 2491 2450 2455 2381 2409 2425 2409 2410 2391 2396 2381 2413 2421 2369 2387 2378 2368 2370 2383 2368 2379 2392 2355 2362 2363 2349 2361 2360 2377 2370 2378 2354 2363 2358 2341 2343 2339 2352 2362 2336 2352 2359 2352 2340 2332 2350 2367 2350 2350 2338 2353 2336 2343 2333 2328 2346 2355 2352 2364 2344 2346 2354 2343 2346 2342 2341 2336 2342 2343 2342 2352 2338 2327 2328 2335 2329 2340 2341 2348 2332 2353 2339 2354 2352 2365 2353 2336 2324 2337 2370 2340 2345 2350 2348 2343 2348 2365 2421 2352 2341 2336 2350 2397 2367 2389 2361 2393 2372 2377 2375 0 0 0
2566 2579 2481 2421 2437 2442 2410 2445 2431 2394 2389 2407 2396 2396 2417 2378 2393 2359 2366 2366 2396 2363 2371 2380 2348 2409 2374 2350 2353 2369 2378 2354 2379 2359 2367 2371 2365 2371 2364 2353 2370 2350 2343 2337 2349 2344 2348 2349 2365 2347 2343 2329 2346 2335 2349 2341 2335 2353 2339 2355 2347 2333 2332 2357 2341 2346 2341 2339 2349 2314 2343 2348 2331 2339 2338 2345 2337 2354 2331 2345 2358 2360 2347 2352 2348 2352 2338 2328 2342 2357 2342 2353 2355 2342 2348 2352 2351 2334 2352 2326 2344 2348 2352 2361 2361 2374 2373 2352 2333 2323 2328 2353 2403 2371 2373 2393 2349 2397 2570 0
2639 2488 2436 2437 2429 2402 2406 2417 2439 2407 2391 2399 2383 2402 2402 2381 2393 2371 2392 2354 2394 2382 2391 2369 2385 2370 2373 2372 2355 2363 2362 2348 2349 2358 2354 2349 2356 2359 2345 2366 2356 2362 2364 2354 2348 2358 2338 2355 2339 2362 2341 2346 2340 2334 2333 2345 2336 2349 2361 2352 2347 2350 2347 2345 2337 2356 2343 2342 2348 2339 2356 2319 2342 2353 2359 2337 2345 2345 2338 2330 2333 2343 2332 2334 2342 2340 2357 2353 2344 2361 2354 2346 2352 2347 2345 2340 2351 2346 2359 2356 2353 2343 2338 2359 2361 2335 2349 2349 2340 2355 2353 2355 2392 2393 2436 2351 2416 2416 2491 2583
2477 2416 2488 2408 2384 2393 2406 2409 2415 2403 2387 2420 2397 2387 2377 2391 2373 2399 2373 2356 2376 2369 2357 2370 2378 2360 2372 2359 2364 2357 2369 2376 2358 2369 2359 2354 2373 2373 2348 2356 2345 2369 2358 2349 2350 2347 2347 2350 2339 2348 2331 2346 2355 2356 2342 2354 2340 2351 2358 2349 2352 2348 2329 2346 2334 2355 2356 2356 2345 2350 2352 2347 2338 2344 2349 2355 2342 2335 2345 2339 2321 2345 2332 2357 2347 2361 2344 2343 2331 2325 2349 2330 2347 2334 2352 2341 2352 2355 2346 2346 2354 2362 2362 2348 2340 2356 2326 2347 2349 2336 2348 2359 2373 2391 2392 2412 2401 2432 2394 2517
2436 2468 2429 2422 2393 2425 2389 2387 2417 2420 2405 2407 2394 2374 2390 2389 2377 2386 2379 2362 2375 2371 2369 2372 2362 2374 2375 2357 2346 2362 2357 2359 2369 2362 2353 2353 2358 2370 2351 2352 2349 2349 2356 2333 2339 2336 2353 2347 2338 2342 2341 2337 2348 2352 2348 2342 2338 2331 2333 2362 2338 2342 2345 2352 2349 2367 2342 2340 2349 2332 2347 2341 2340 2352 2340 2340 2332 2341 2353 2342 2352 2328 2355 2340 2339 2334 2353 2355 2339 2346 2339 2347 2358 2344 2357 2337 2353 2346 2350 2346 2354 2341 2335 2338 2346 2341 2340 2345 2331 2346 2336 2341 2335 2328 2338 2385 2428 2373 2375 2496
2468 2470 2440 2432 2440 2421 2415 2427 2395 2402 2392 2407 2388 2386 2389 2380 2374 2372 2382 2376 2370 2386 2387 2379 2379 2381 2376 2375 2346 2377 2359 2363 2346 2361 2371 2371 2349 2361 2367 2364 2353 2367 2356 2349 2351 2355 2366 2346 2351 2336 2345 2339 2334 2338 2339 2348 2350 2349 2346 2338 2346 2343 2339 2340 2341 2354 2342 2348 2349 2339 2332 2353 2346 2347 2332 2344 2364 2355 2342 2337 2348 2348 2350 2338 2363 2349 2347 2337 2334 2359 2344 2353 2348 2367 2344 2361 2354 2351 2350 2342 2348 2349 2356 2323 2352 2357 2348 2362 2343 2343 2349 2337 2352 2364 2403 2344 2395 2385 2475 2494
2492 2456 2454 2420 2403 2413 2390 2364 2385 2384 2393 2403 2396 2392 2388 2369 2367 2375 2368 2377 2377 2377 2372 2359 2369 2384 2361 2359 2364 2365 2355 2363 2351 2353 2347 2377 2368 2362 2344 2350 2368 2348 2349 2353 2351 2356 2354 2355 2350 2357 2350 2344 2350 2343 2355 2347 2346 2348 2347 2361 2345 2343 2347 2343 2338 2340 2354 2343 2336 2350 2341 2349 2342 2337 2348 2339 2339 2346 2341 2342 2337 2359 2338 2344 2349 2339 2337 2341 2342 2344 2357 2336 2335 2343 2351 2356 2328 2354 2342 2343 2348 2338 2335 2318 2337 2337 2347 2340 2332 2353 2328 2330 2317 2328 2370 2359 2370 2407 2351 2441
2468 2459 2410 2395 2400 2412 2403 2414 2396 2390 2405 2389 2382 2368 2385 2404 2373 2379 2385 2379 2389 2381 2380 2372 2386 2375 2379 2361 2365 2359 2370 2380 2362 2369 2359 2356 2343 2361 2338 2360 2365 2366 2352 2361 2345 2361 2356 2344 2364 2361 2341 2341 2358 2344 2351 2348 2348 2332 2361 2361 2343 2354 2351 2351 2345 2344 2347 2339 2349 2338 2352 2346 2346 2354 2341 2345 2340 2348 2345 2342 2350 2354 2327 2361 2355 2348 2349 2352 2351 2337 2358 2359 2360 2352 2366 2349 2359 2353 2363 2347 2342 2355 2350 2350 2348 2362 2341 2363 2344 2358 2348 2368 2340 2365 2352 2381 2394 2400 2407 2351
2426 2445 2406 2425 2396 2398 2402 2410 2393 2377 2403 2399 2389 2385 2369 2370 2372 2379 2371 2387 2363 2373 2371 2369 2369 2363 2363 2375 2369 2376 2376 2352 2378 2368 2352 2363 2369 2369 2367 2367 2369 2362 2355 2373 2345 2361 2355 2358 2348 2351 2363 2360 2359 2365 2337 2358 2344 2348 2358 2349 2349 2345 2349 2357 2354 2363 2346 2347 2351 2338 2348 2338 2348 2333 2335 2344 2349 2341 2338 2351 2341 2349 2339 2347 2360 2350 2354 2345 2344 2350 2353 2342 2339 2344 2362 2349 2334 2357 2354 2343 2356 2356 2342 2356 2346 2344 2347 2354 2344 2353 2362 2347 2336 2374 2367 2351 2343 2371 2426 2386
2452 2392 2415 2399 2395 2413 2390 2394 2370 2382 2397 2369 2371 2373 2361 2362 2373 2373 2367 2364 2374 2361 2368 2371 2363 2370 2371 2361 2360 2360 2357 2358 2363 2363 2367 2352 2360 2364 2360 2363 2362 2352 2366 2360 2348 2336 2352 2368 2348 2352 2349 2344 2356 2344 2359 2359 2343 2354 2342 2341 2345 2354 2352 2335 2350 2340 2355 2348 2335 2343 2332 2346 2346 2354 2358 2342 2357 2346 2351 2354 2346 2327 2342 2357 2341 2346 2354 2340 2363 2345 2365 2361 2363 2353 2357 2358 2349 2352 2346 2347 2346 2345 2364 2343 2350 2351 2348 2351 2353 2331 2343 2344 2357 2372 2365 2341 2348 2315 2373 2386
2426 2415 2434 2406 2411 2395 2390 2385 2390 2391 2376 2382 2376 2372 2394 2372 2385 2377 2368 2367 2372 2348 2373 2372 2365 2366 2359 2369 2358 2353 2365 2358 2355 2371 2366 2354 2351 2364 2348 2348 2360 2352 2357 2349 2364 2361 2356 2345 2348 2356 2357 2348 2345 2343 2346 2354 2351 2353 2346 2349 2337 2337 2344 2355 2349 2357 2358 2349 2341 2341 2348 2344 2340 2346 2354 2341 2342 2345 2340 2348 2351 2340 2352 2344 2345 2347 2340 2348 2356 2343 2346 2356 2360 2350 2360 2375 2361 2330 2339 2354 2359 2357 2339 2339 2365 2353 2360 2355 2343 2366 2345 2359 2373 2355 2364 2369 2381 2353 2365 2402
2424 2434 2427 2410 2392 2395 2383 2400 2392 2381 2384 2373 2369 2372 2388 2386 2386 2375 2360 2380 2365 2354 2364 2371 2362 2361 2362 2364 2362 2364 2345 2367 2365 2364 2356 2358 2366 2360 2360 2354 2360 2358 2358 2355 2357 2351 2351 2354 2350 2348 2355 2344 2339 2349 2352 2348 2352 2355 2351 2345 2357 2353 2350 2336 2341 2348 2347 2346 2353 2346 2347 2351 2353 2355 2345 2337 2339 2343 2343 2350 2348 2339 2348 2345 2362 2337 2333 2339 2346 2338 2356 2337 2348 2344 2344 2361 2349 2347 2351 2347 2344 2358 2360 2350 2354 2347 2353 2341 2352 2371 2357 2361 2381 2358 2349 2336 2336 2359 2398 2330
2418 2413 2410 2408 2410 2388 2389 2398 2383 2407 2394 2382 2385 2376 2371 2382 2366 2370 2356 2373 2377 2373 2362 2366 2365 2360 2370 2363 2369 2362 2367 2371 2359 2365 2369 2354 2355 2360 2348 2352 2355 2358 2359 2352 2353 2357 2349 2356 2350 2352 2346 2348 2344 2341 2346 2344 2341 2351 2351 2343 2355 2342 2333 2343 2354 2353 2340 2347 2341 2346 2344 2350 2342 2346 2338 2342 2345 2353 2341 2345 2345 2340 2343 2350 2340 2348 2334 2346 2352 2347 2340 2349 2351 2342 2349 2346 2355 2351 2349 2350 2340 2354 2352 2342 2339 2336 2349 2346 2344 2354 2340 2340 2361 2355 2347 2376 2365 2385 2359 2464
2414 2428 2404 2400 2395 2393 2385 2399 2401 2384 2375 2384 2380 2369 2370 2371 2375 2373 2372 2365 2379 2374 2365 2359 2353 2370 2369 2361 2364 2365 2348 2356 2362 2364 2369 2361 2350 2350 2360 2349 2354 2351 2364 2354 2349 2341 2350 2347 2342 2351 2356 2341 2353 2353 2345 2345 2344 2341 2353 2350 2343 2352 2343 2344 2337 2347 2347 2360 2347 2345 2346 2347 2341 2344 2346 2346 2333 2336 2343 2345 2349 2340 2351 2338 2343 2350 2350 2338 2351 2336 2345 2338 2354 2355 2361 2348 2355 2353 2348 2329 2352 2347 2342 2337 2353 2343 2345 2367 2343 2362 2345 2348 2364 2349 2318 2348 2344 2327 2373 2371
2403 2437 2390 2391 2375 2389 2377 2383 2381 2365 2371 2382 2369 2378 2387 2377 2367 2361 2376 2375 2364 2359 2353 2356 2362 2360 2364 2359 2363 2354 2362 2362 2360 2364 2355 2355 2366 2365 2347 2353 2353 2354 2349 2347 2349 2349 2339 2351 2339 2342 2339 2350 2348 2341 2338 2343 2345 2348 2346 2340 2344 2350 2345 2342 2344 2344 2344 2345 2349 2338 2345 2344 2349 2341 2340 2339 2344 2348 2343 2341 2341 2352 2336 2356 2338 2349 2345 2330 2333 2342 2352 2347 2344 2344 2351 2334 2337 2342 2353 2355 2344 2344 2346 2341 2345 2353 2325 2344 2345 2347 2333 2352 2344 2342 2363 2349 2342 2380 2335 2352
2408 2422 2400 2401 2392 2386 2380 2406 2377 2369 2377 2373 2373 2382 2382 2368 2364 2374 2373 2376 2373 2359 2367 2358 2367 2366 2361 2364 2348 2367 2354 2359 2361 2359 2359 2356 2358 2351 2347 2365 2360 2348 2351 2357 2339 2352 2351 2352 2348 2346 2350 2345 2350 2346 2354 2351 2344 2344 2348 2353 2341 2347 2355 2348 2341 2353 2343 2349 2341 2338 2344 2343 2344 2341 2345 2337 2337 2349 2351 2339 2340 2348 2347 2340 2347 2345 2341 2341 2356 2341 2347 2347 2352 2355 2350 2348 2350 2357 2339 2346 2340 2360 2352 2354 2352 2349 2351 2348 2351 2349 2339 2341 2336 2356 2361 2382 2359 2382 2361 2345
2418 2408 2393 2391 2404 2381 2380 2377 2389 2392 2380 2374 2373 2371 2377 2364 2361 2374 2378 2365 2370 2365 2363 2376 2363 2363 2359 2372 2369 2361 2362 2352 2351 2354 2355 2359 2362 2351 2356 2365 2350 2344 2360 2351 2356 2350 2349 2350 2347 2339 2350 2352 2346 2354 2338 2344 2345 2343 2348 2335 2341 2344 2340 2350 2346 2346 2338 2346 2352 2341 2344 2336 2345 2350 2339 2344 2343 2338 2345 2341 2348 2347 2348 2345 2344 2341 2344 2346 2346 2344 2340 2348 2345 2354 2353 2352 2348 2346 2354 2347 2363 2353 2355 2346 2343 2340 2346 2340 2336 2341 2331 2335 2329 2333 2337 2344 2323 2330 2359 2352
2424 2427 2390 2413 2404 2402 2381 2391 2395 2404 2379 2388 2372 2380 2381 2372 2371 2382 2382 2376 2373 2372 2344 2367 2361 2365 2372 2362 2353 2359 2369 2356 2363 2360 2364 2354 2354 2361 2361 2361 2358 2355 2350 2353 2347 2353 2344 2348 2341 2340 2344 2347 2352 2341 2341 2356 2343 2338 2353 2349 2348 2345 2342 2336 2350 2354 2349 2352 2339 2350 2341 2348 2348 2348 2345 2346 2350 2357 2340 2343 2335 2345 2353 2348 2342 2339 2338 2345 2341 2348 2350 2355 2349 2351 2362 2349 2357 2348 2350 2349 2348 2355 2361 2347 2352 2357 2345 2353 2350 2370 2347 2362 2343 2364 2380 2396 2385 2375 2396 2354
2424 2401 2422 2375 2403 2403 2378 2405 2385 2395 2374 2372 2367 2378 2378 2378 2371 2375 2360 2367 2360 2352 2361 2366 2354 2370 2374 2359 2365 2359 2366 2365 2361 2353 2362 2358 2354 2368 2356 2351 2345 2355 2346 2342 2352 2352 2351 2342 2349 2344 2348 2345 2342 2353 2345 2345 2347 2348 2347 2352 2347 2342 2347 2342 2343 2351 2347 2345 2350 2346 2346 2341 2337 2349 2342 2351 2343 2341 2343 2338 2344 2338 2346 2335 2347 2345 2344 2342 2348 2346 2347 2342 2358 2355 2347 2355 2350 2339 2346 2352 2341 2343 2354 2351 2348 2342 2343 2336 2346 2363 2328 2348 2354 2330 2355 2328 2359 2359 2322 2410
2400 2397 2394 2402 2398 2390 2376 2406 2389 2382 2384 2386 2373 2377 2373 2372 2375 2369 2375 2373 2358 2361 2350 2361 2363 2359 2356 2368 2357 2361 2365 2361 2361 2357 2366 2353 2357 2366 2354 2349 2348 2354 2356 2348 2351 2353 2358 2354 2347 2348 2342 2349 2341 2347 2346 2336 2342 2347 2352 2349 2343 2342 2349 2354 2349 2350 2343 2348 2354 2341 2346 2315 2341 2338 2341 2336 2339 2352 2341 2343 2343 2346 2340 2344 2353 2336 2342 2340 2344 2347 2346 2347 2356 2351 2347 2341 2350 2347 2351 2346 2351 2345 2350 2341 2344 2340 2358 2335 2343 2347 2352 2345 2348 2341 2340 2348 2347 2375 2337 2365
2429 2408 2429 2398 2389 2379 2388 2419 2384 2384 2380 2376 2376 2383 2377 2377 2369 2374 2367 2371 2371 2357 2363 2361 2363 2363 2368 2363 2368 2368 2359 2360 2356 2355 2365 2354 2371 2355 2350 2356 2355 2356 2350 2351 2364 2353 2353 2353 2355 2354 2349 2350 2347 2344 2346 2345 2338 2344 2349 2336 2352 2345 2349 2344 2341 2349 2346 2346 2338 2349 2347 2340 2350 2340 2339 2348 2327 2342 2337 2338 2351 2342 2350 2338 2355 2354 2346 2354 2343 2342 2350 2340 2359 2355 2355 2340 2340 2355 2358 2354 2354 2355 2339 2338 2344 2346 2354 2353 2354 2344 2345 2339 2355 2354 2355 2343 2342 2359 2367 2374
2408 2416 2414 2418 2391 2376 2372 2399 2401 2371 2389 2375 2380 2382 2378 2369 2368 2364 2376 2370 2363 2366 2358 2375 2376 2365 2368 2355 2363 2365 2371 2363 2365 2358 2371 2353 2360 2351 2353 2353 2349 2354 2348 2354 2347 2353 2357 2356 2355 2343 2352 2348 2349 2342 2342 2353 2350 2347 2347 2347 2339 2348 2361 2345 2344 2346 2360 2347 2343 2344 2345 2349 2337 2351 2343 2341 2335 2337 2343 2338 2341 2353 2346 2350 2348 2339 2346 2349 2346 2343 2350 2345 2356 2357 2347 2354 2352 2344 2339 2359 2345 2348 2356 2345 2350 2350 2338 2341 2338 2358 2356 2348 2345 2334 2354 2356 2334 2343 2320 2374
2416 2419 2436 2404 2382 2387 2391 2394 2373 2386 2381 2378 2366 2370 2366 2363 2376 2368 2372 2369 2377 2363 2373 2375 2358 2377 2369 2359 2356 2355 2355 2361 2368 2360 2370 2354 2363 2359 2355 2351 2361 2349 2353 2348 2356 2347 2358 2348 2350 2346 2350 2357 2351 2349 2348 2347 2353 2349 2346 2347 2352 2344 2348 2346 2350 2351 2344 2348 2348 2347 2345 2345 2343 2351 2344 2347 2341 2339 2345 2339 2344 2347 2354 2342 2337 2351 2341 2348 2345 2347 2344 2356 2346 2356 2364 2355 2361 2338 2350 2351 2352 2356 2343 2357 2349 2345 2339 2349 2355 2343 2356 2349 2369 2357 2380 2342 2357 2352 2338 2380
2421 2395 2396 2393 2399 2384 2373 2389 2391 2378 2380 2373 2364 2380 2363 2367 2378 2358 2368 2362 2364 2355 2357 2366 2360 2373 2370 2365 2358 2357 2366 2365 2356 2370 2361 2352 2362 2349 2352 2344 2357 2358 2352 2340 2352 2345 2349 2350 2349 2353 2353 2348 2349 2350 2353 2346 2345 2354 2342 2350 2347 2351 2345 2338 2347 2342 2341 2348 2353 2342 2346 2348 2341 2343 2338 2335 2338 2343 2339 2347 2340 2341 2355 2335 2347 2347 2341 2347 2337 2330 2342 2346 2353 2350 2349 2359 2345 2347 2350 2357 2335 2340 2350 2346 2338 2350 2350 2338 2341 2352 2346 2336 2349 2339 2340 2340 2326 2348 2375 2375
2407 2394 2406 2408 2405 2396 2390 2412 2378 2378 2385 2381 2382 2375 2382 2372 2369 2372 2377 2366 2365 2357 2362 2357 2374 2368 2368 2370 2376 2376 2366 2357 2356 2349 2346 2350 2369 2355 2356 2356 2352 2352 2355 2344 2349 2349 2351 2344 2351 2349 2346 2344 2348 2351 2349 2349 2341 2342 2347 2336 2344 2338 2344 2348 2350 2350 2348 2339 2349 2341 2341 2346 2351 2338 2339 2336 2340 2337 2343 2345 2342 2333 2349 2339 2340 2347 2351 2341 2351 2349 2350 2349 2360 2352 2339 2348 2340 2339 2352 2350 2351 2353 2345 2354 2351 2349 2346 2339 2345 2334 2342 2349 2346 2335 2363 2380 2374 2360 2376 2372
2430 2405 2423 2392 2389 2378 2393 2399 2382 2381 2367 2386 2382 2386 2373 2375 2371 2381 2367 2369 2363 2369 2376 2379 2383 2358 2369 2363 2370 2364 2372 2362 2353 2372 2359 2373 2352 2368 2361 2359 2349 2367 2351 2353 2350 2356 2356 2349 2358 2348 2353 2350 2351 2346 2352 2352 2354 2350 2351 2347 2348 2349 2350 2351 2350 2356 2354 2345 2349 2354 2357 2348 2349 2347 2341 2340 2349 2344 2351 2353 2358 2349 2353 2344 2350 2348 2347 2348 2351 2346 2355 2352 2353 2360 2356 2362 2345 2355 2353 2349 2356 2352 2355 2349 2356 2351 2344 2343 2352 2349 2344 2347 2333 2349 2337 2369 2330 2382 2349 2347
2436 2426 2397 2393 2384 2393 2380 2413 2383 2383 2389 2395 2363 2372 2367 2367 2363 2370 2375 2371 2369 2364 2376 2374 2373 2361 2361 2365 2364 2367 2360 2363 2363 2361 2369 2361 2362 2363 2352 2357 2358 2355 2354 2350 2347 2355 2357 2350 2357 2355 2353 2342 2343 2344 2352 2347 2350 2357 2361 2347 2354 2355 2340 2344 2348 2347 2347 2354 2345 2351 2349 2351 2353 2349 2352 2338 2353 2351 2346 2352 2350 2342 2341 2344 2347 2347 2346 2349 2345 2348 2351 2354 2345 2352 2352 2348 2354 2342 2352 2353 2349 2347 2353 2343 2347 2344 2357 2355 2359 2332 2347 2362 2352 2342 2354 2340 2343 2345 2360 2380
2419 2428 2435 2428 2408 2412 2394 2426 2400 2381 2392 2380 2390 2378 2382 2368 2376 2380 2364 2370 2373 2370 2369 2371 2368 2372 2363 2364 2366 2363 2366 2374 2366 2362 2369 2357 2361 2364 2356 2359 2350 2358 2356 2353 2349 2354 2358 2345 2350 2354 2342 2360 2344 2343 2347 2349 2351 2346 2351 2354 2353 2348 2347 2352 2357 2350 2357 2351 2350 2345 2349 2345 2345 2339 2350 2339 2348 2342 2345 2345 2345 2335 2348 2347 2347 2345 2355 2346 2360 2334 2356 2355 2350 2353 2357 2356 2346 2358 2358 2356 2359 2361 2351 2345 2362 2351 2340 2341 2369 2343 2350 2349 2338 2362 2371 2350 2365 2396 2385 2415
2387 2418 2402 2391 2387 2393 2386 2411 2379 2392 2389 2379 2373 2381 2384 2379 2370 2369 2365 2365 2374 2369 2367 2358 2360 2368 2373 2362 2366 2363 2367 2356 2365 2369 2359 2358 2358 2345 2358 2349 2352 2355 2352 2356 2357 2354 2361 2355 2355 2352 2355 2353 2346 2349 2342 2349 2347 2354 2350 2349 2342 2349 2348 2346 2355 2349 2354 2347 2350 2346 2348 2348 2341 2339 2349 2345 2351 2343 2349 2344 2355 2357 2347 2336 2345 2349 2349 2335 2354 2345 2356 2352 2356 2358 2354 2345 2351 2351 2347 2347 2356 2352 2360 2352 2345 2350 2347 2335 2347 2359 2357 2356 2343 2339 2356 2336 2351 2374 2361 2354
2416 2427 2410 2391 2405 2400 2386 2397 2406 2393 2392 2391 2381 2380 2370 2384 2366 2363 2376 2369 2368 2363 2369 2366 2371 2365 2360 2368 2370 2365 2366 2358 2359 2355 2360 2369 2369 2357 2351 2360 2358 2349 2359 2347 2359 2359 2359 2352 2350 2346 2349 2353 2353 2351 2347 2344 2346 2344 2344 2347 2346 2355 2349 2341 2354 2346 2346 2347 2355 2353 2352 2345 2345 2346 2343 2347 2342 2348 2342 2351 2343 2342 2345 2342 2343 2341 2343 2348 2345 2346 2348 2339 2350 2372 2358 2345 2356 2346 2345 2345 2348 2346 2342 2344 2342 2348 2346 2348 2345 2344 2353 2352 2336 2368 2363 2355 2342 2364 2357 2375
2412 2416 2417 2417 2394 2394 2391 2402 2381 2381 2386 2375 2372 2386 2370 2376 2384 2374 2362 2378 2373 2365 2364 2372 2374 2372 2365 2370 2369 2353 2364 2356 2362 2369 2361 2362 2348 2350 2352 2358 2360 2355 2357 2361 2355 2356 2351 2350 2356 2346 2350 2355 2358 2353 2352 2352 2349 2345 2352 2338 2357 2351 2356 2356 2358 2350 2342 2350 2353 2344 2349 2343 2350 2338 2352 2351 2343 2348 2336 2354 2341 2348 2356 2343 2354 2359 2343 2351 2349 2356 2343 2351 2353 2338 2353 2350 2352 2345 2344 2356 2353 2348 2353 2348 2351 2344 2350 2348 2355 2360 2352 2331 2348 2350 2362 2345 2351 2383 2373 2356
2423 2429 2403 2387 2378 2399 2394 2398 2394 2388 2374 2392 2381 2382 2376 2379 2375 2367 2379 2384 2382 2374 2363 2356 2372 2375 2361 2376 2367 2365 2357 2368 2364 2360 2368 2365 2355 2364 2352 2360 2361 2356 2358 2361 2359 2352 2350 2353 2358 2346 2346 2355 2356 2354 2344 2354 2351 2347 2349 2349 2345 2348 2358 2358 2357 2349 2344 2346 2343 2351 2351 2352 2350 2342 2349 2342 2345 2348 2348 2341 2356 2343 2348 2356 2358 2344 2349 2356 2354 2352 2353 2349 2349 2360 2351 2351 2342 2359 2358 2355 2345 2352 2349 2350 2346 2344 2345 2352 2343 2360 2350 2348 2360 2361 2340 2348 2354 2385 2361 2362
2454 2418 2395 2415 2421 2405 2418 2392 2387 2375 2384 2394 2393 2376 2385 2381 2373 2383 2379 2367 2362 2367 2372 2372 2367 2368 2375 2367 2367 2368 2357 2366 2369 2364 2365 2368 2349 2363 2357 2367 2354 2362 2358 2358 2361 2358 2350 2352 2356 2349 2353 2356 2355 2352 2356 2352 2341 2351 2346 2345 2356 2358 2353 2346 2350 2348 2344 2354 2348 2341 2346 2351 2364 2346 2348 2351 2350 2354 2344 2349 2348 2342 2341 2354 2351 2353 2364 2340 2349 2355 2356 2352 2356 2353 2355 2356 2358 2353 2344 2353 2350 2338 2356 2358 2356 2344 2350 2355 2375 2369 2367 2361 2361 2354 2356 2370 2361 2377 2374 2379
2408 2405 2413 2381 2413 2392 2423 2393 2386 2387 2389 2391 2393 2376 2382 2374 2381 2376 2378 2374 2361 2375 2368 2370 2368 2365 2364 2377 2365 2367 2357 2371 2363 2361 2359 2371 2361 2363 2363 2360 2364 2355 2361 2359 2348 2356 2358 2364 2355 2346 2349 2362 2345 2347 2343 2353 2349 2357 2351 2356 2343 2348 2352 2359 2352 2363 2343 2347 2356 2344 2344 2352 2354 2344 2348 2353 2351 2341 2349 2346 2342 2347 2348 2362 2349 2341 2355 2352 2354 2346 2355 2365 2353 2357 2357 2356 2352 2348 2357 2357 2356 2339 2355 2357 2362 2357 2342 2353 2357 2367 2350 2353 2349 2361 2340 2344 2367 2377 2341 2366
2446 2443 2444 2415 2433 2414 2394 2400 2396 2393 2379 2381 2378 2381 2383 2380 2378 2371 2379 2375 2382 2369 2372 2364 2367 2372 2353 2368 2368 2370 2364 2362 2365 2365 2367 2366 2361 2359 2359 2352 2361 2358 2358 2350 2350 2359 2360 2348 2346 2362 2348 2348 2349 2351 2353 2345 2354 2354 2351 2349 2354 2352 2354 2347 2359 2347 2355 2355 2353 2346 2346 2349 2345 2347 2346 2353 2342 2349 2349 2353 2356 2347 2354 2353 2346 2340 2348 2346 2353 2347 2348 2354 2358 2353 2362 2354 2357 2351 2352 2349 2354 2350 2359 2347 2357 2345 2360 2337 2353 2344 2354 2337 2352 2344 2367 2361 2366 2346 2361 2348
2445 2480 2430 2420 2412 2401 2419 2393 2405 2398 2410 2419 2374 2394 2388 2374 2364 2385 2383 2377 2383 2375 2380 2376 2364 2366 2377 2373 2370 2363 2363 2366 2361 2361 2363 2364 2374 2358 2363 2354 2357 2366 2363 2352 2350 2354 2351 2361 2352 2356 2354 2351 2350 2346 2356 2357 2353 2350 2357 2358 2354 2353 2354 2354 2357 2357 2356 2357 2346 2352 2355 2355 2355 2353 2351 2353 2346 2348 2361 2345 2355 2345 2339 2349 2349 2348 2358 2351 2354 2355 2351 2351 2354 2370 2357 2354 2358 2349 2359 2361 2365 2353 2348 2367 2351 2362 2347 2345 2357 2336 2342 2344 2366 2361 2348 2346 2360 2363 2358 2365
2519 2465 2472 2455 2434 2431 2418 2413 2418 2418 2385 2400 2398 2389 2396 2383 2376 2384 2380 2379 2394 2386 2382 2385 2367 2378 2369 2363 2368 2371 2379 2375 2380 2364 2367 2356 2365 2356 2365 2357 2365 2361 2361 2355 2352 2359 2353 2353 2360 2347 2355 2355 2349 2355 2351 2350 2357 2355 2347 2356 2352 2354 2353 2354 2362 2351 2355 2345 2355 2351 2345 2354 2344 2354 2346 2347 2344 2353 2356 2354 2335 2353 2358 2356 2349 2349 2352 2354 2358 2352 2350 2354 2350 2355 2358 2355 2357 2345 2343 2352 2358 2361 2354 2352 2353 2346 2338 2351 2365 2353 2349 2345 2364 2377 2355 2359 2353 2340 2363 2379
2883 2755 2982 2943 2821 2701 2492 2383 2481 2604 2697 2563 2531 2501 2507 2475 2432 2454 2434 2449 2420 2403 2427 2419 2414 2389 2387 2404 2383 2371 2374 2383 2392 2385 2361 2364 2361 2367 2362 2366 2357 2366 2362 2358 2357 2361 2363 2365 2353 2354 2361 2357 2359 2360 2360 2368 2350 2358 2356 2351 2356 2360 2354 2357 2361 2345 2351 2352 2349 2349 2346 2344 2364 2356 2349 2351 2352 2352 2348 2362 2357 2342 2355 2348 2352 2353 2354 2353 2353 2352 2358 2356 2353 2358 2361 2359 2348 2346 2357 2358 2351 2346 2345 2356 2359 2350 2353 2346 2348 2357 2346 2349 2347 2358 2343 2353 2353 2332 2376 2402
2658 2529 2572 2493 2517 2455 2449 2436 2434 2410 2417 2436 2413 2395 2408 2428 2412 2402 2400 2417 2398 2391 2413 2463 2435 2437 2458 2520 2596 2590 2617 2592 2569 2516 2374 2374 2371 2360 2356 2365 2357 2358 2354 2353 2353 2353 2357 2355 2350 2364 2354 2354 2357 2355 2361 2362 2363 2358 2357 2357 2356 2354 2357 2349 2360 2351 2353 2359 2356 2346 2345 2354 2351 2348 2360 2358 2356 2356 2347 2356 2357 2357 2356 2354 2364 2346 2357 2348 2357 2368 2354 2364 2349 2357 2354 2346 2364 2351 2372 2363 2354 2358 2357 2358 2345 2354 2360 2363 2354 2366 2356 2358 2355 2346 2359 2352 2344 2386 2313 2385
0 3116 2813 2732 2769 2731 2642 2635 2587 2633 2595 2544 2524 2480 2534 2501 2460 2459 2437 2421 2460 2416 2393 2786 2393 2398 2394 2393 2409 2382 2388 2380 2380 2388 2385 2355 2356 2371 2357 2357 2355 2358 2354 2364 2358 2358 2353 2356 2356 2355 2357 2351 2359 2352 2347 2352 2354 2357 2353 2356 2349 2349 2351 2350 2359 2355 2347 2346 2350 2347 2347 2345 2354 2349 2350 2348 2351 2348 2353 2349 2356 2360 2360 2362 2343 2349 2354 2355 2348 2351 2357 2359 2358 2355 2371 2353 2355 2353 2359 2367 2359 2367 2361 2360 2362 2366 2366 2350 2355 2356 2363 2368 2367 2368 2369 2371 2380 2376 2405 2425
2626 2626 2548 2532 2579 2664 2550 2509 2518 2592 2512 2539 2515 2494 2525 2498 2530 2520 2527 2505 2508 2498 2475 2476 2508 2488 2494 2483 2465 2481 2487 2456 2458 2453 2434 2386 2363 2355 2362 2369 2358 2357 2353 2358 2365 2354 2352 2344 2344 2358 2357 2346 2354 2353 2353 2354 2359 2350 2350 2355 2344 2355 2347 2341 2362 2348 2345 2357 2346 2361 2353 2352 2350 2356 2350 2353 2345 2349 2355 2352 2355 2351 2353 2356 2360 2351 2353 2355 2357 2359 2348 2355 2355 2360 2356 2378 2370 2367 2384 2356 2365 2377 2370 2360 2357 2358 2382 2358 2352 2365 2372 2376 2374 2360 2344 2359 2365 2362 2387 2442
2605 2650 2540 2541 2554 2621 2543 2516 2526 2532 2498 2507 2491 2511 2490 2488 2487 2498 2483 2486 2479 2491 2492 2477 2467 2474 2482 2473 2482 2458 2462 2482 2465 2479 2448 2408 2364 2363 2362 2361 2356 2360 2350 2356 2358 2359 2357 2349 2351 2357 2355 2351 2360 2357 2363 2355 2355 2351 2363 2355 2354 2355 2353 2356 2362 2358 2351 2348 2349 2366 2348 2358 2349 2347 2348 2347 2351 2355 2352 2349 2356 2350 2355 2354 2349 2357 2352 2347 2348 2357 2349 2354 2354 2361 2356 2359 2366 2364 2358 2393 2378 2371 2389 2405 2395 2411 2386 2399 2384 2434 2384 2422 2409 2375 2371 2409 2415 2418 2523 2397
2619 2673 2549 2523 2557 2597 2502 2489 2485 2532 2499 2499 2498 2522 2498 2502 2497 2486 2502 2495 2466 2507 2478 2472 2473 2466 2476 2475 2476 2472 2468 2476 2466 2463 2465 2410 2363 2360 2363 2362 2360 2358 2356 2356 2356 2356 2356 2361 2350 2355 2347 2350 2357 2349 2351 2359 2345 2359 2348 2347 2349 2350 2354 2357 2358 2350 2354 2349 2353 2346 2356 2354 2349 2346 2352 2351 2346 2350 2350 2349 2350 2345 2351 2358 2345 2363 2351 2352 2351 2347 2357 2351 2355 2351 2379 2383 2381 2374 2378 2374 2379 2365 2359 2360 2380 2371 2373 2386 2436 2371 2392 2390 2369 2383 2379 2407 2380 2378 2363 2339
2625 2676 2572 2514 2537 2572 2519 2492 2482 2519 2487 2497 2505 2491 2476 2512 2486 2479 2486 2477 2472 2484 2491 2467 2470 2470 2448 2472 2450 2445 2467 2462 2467 2442 2447 2382 2364 2362 2358 2351 2362 2361 2366 2358 2365 2361 2356 2360 2357 2344 2351 2353 2348 2347 2352 2349 2361 2350 2345 2352 2354 2353 2355 2359 2358 2353 2361 2359 2358 2346 2348 2348 2351 2346 2348 2356 2350 2347 2346 2357 2348 2354 2348 2351 2346 2362 2352 2354 2348 2348 2342 2359 2346 2376 2438 2437 2449 2421 2427 2453 2429 2449 2452 2434 2435 2460 2484 2438 2439 2429 2481 2454 2430 2497 2498 2416 2475 2469 2456 0
2895 2937 2668 2579 2582 2624 2526 2528 2526 2510 2503 2498 2494 2522 2492 2497 2485 2488 2485 2489 2494 2474 2467 2471 2468 2474 2479 2466 2474 2468 2469 2474 2453 2457 2452 2406 2371 2362 2364 2363 2357 2361 2358 2358 2360 2359 2351 2354 2353 2355 2352 2350 2358 2350 2355 2355 2353 2344 2355 2347 2344 2352 2349 2351 2359 2350 2357 2353 2357 2355 2343 2346 2351 2337 2349 2358 2349 2352 2355 2349 2349 2356 2352 2347 2346 2349 2343 2360 2355 2353 2353 2358 2352 2391 2425 2440 2451 2441 2432 2435 2449 2441 2438 2454 2451 2440 2433 2423 2441 2445 2477 2423 2482 2442 2445 2526 2460 2522 2565 0
0 0 3001 2681 2838 2852 2682 2611 2641 2588 2529 2553 2571 2555 2513 2519 2514 2541 2523 2537 2509 2515 2519 2496 2486 2483 2487 2503 2502 2479 2479 2467 2471 2473 2465 2405 2362 2362 2371 2357 2360 2361 2362 2361 2368 2354 2353 2361 2354 2356 2357 2346 2352 2361 2350 2349 2354 2347 2352 2353 2351 2355 2353 2363 2362 2354 2351 2350 2356 2359 2343 2345 2351 2358 2357 2357 2353 2354 2356 2358 2349 2351 2351 2351 2351 2351 2351 2349 2352 2354 2350 2351 2364 2390 2451 2459 2460 2455 2453 2451 2458 2455 2464 2465 2442 2453 2464 2452 2461 2452 2465 2463 2451 2460 2444 2454 2431 2471 2537 2519
0 3372 3025 2864 2768 2945 2665 2645 2666 2650 2591 2579 2557 2493 2538 2586 2510 2543 2540 2528 2527 2559 2507 2509 2510 2498 2524 2478 2470 2476 2465 2496 2472 2469 2437 2385 2370 2364 2362 2365 2359 2366 2358 2359 2347 2353 2353 2351 2361 2352 2354 2348 2354 2351 2360 2349 2350 2346 2346 2348 2354 2351 2355 2356 2355 2353 2351 2350 2345 2350 2350 2351 2345 2351 2353 2345 2343 2344 2347 2352 2356 2348 2351 2345 2352 2351 2350 2351 2346 2349 2350 2354 2363 2389 2432 2441 2435 2469 2434 2462 2460 2437 2457 2460 2461 2458 2407 2466 2467 2480 2421 2477 2456 2464 2496 2496 2445 2554 2509 2557
2630 2674 2580 2532 2533 2606 2530 2530 2532 2558 2513 2514 2547 2518 2515 2509 2498 2484 2527 2512 2533 2489 2496 2482 2483 2481 2479 2494 2468 2476 2489 2477 2492 2467 2453 2377 2359 2368 2367 2356 2363 2360 2358 2366 2350 2354 2350 2347 2351 2352 2359 2354 2350 2356 2357 2348 2347 2352 2354 2352 2351 2352 2355 2362 2359 2355 2351 2354 2358 2349 2351 2354 2351 2344 2347 2352 2346 2349 2351 2357 2348 2346 2353 2353 2359 2359 2355 2360 2349 2350 2344 2364 2358 2388 2449 2441 2447 2442 2448 2434 2447 2447 2437 2448 2450 2438 2439 2430 2448 2442 2430 2438 2430 2457 2452 2465 2469 2482 2496 2495
2633 2711 2578 2531 2524 2548 2502 2511 2523 2547 2478 2511 2489 2483 2502 2493 2496 2510 2490 2487 2481 2464 2482 2470 2467 2473 2469 2467 2462 2475 2482 2471 2473 2477 2444 2370 2367 2366 2358 2360 2350 2364 2366 2361 2363 2354 2349 2354 2358 2350 2357 2358 2352 2357 2347 2351 2352 2356 2356 2355 2359 2347 2352 2357 2358 2351 2356 2337 2350 2352 2345 2354 2342 2359 2348 2344 2345 2352 2352 2351 2341 2356 2352 2347 2354 2354 2350 2353 2356 2350 2353 2352 2353 2394 2458 2457 2449 2440 2452 2471 2455 2446 2442 2466 2449 2449 2443 2466 2470 2463 2446 2476 2470 2438 2458 2485 2464 2480 2434 2441
2687 2709 2579 2549 2532 2570 2543 2522 2494 2553 2509 2512 2514 2502 2505 2494 2482 2484 2499 2492 2491 2499 2491 2485 2477 2485 2466 2463 2456 2477 2474 2477 2468 2480 2459 2385 2367 2363 2362 2362 2358 2357 2364 2360 2356 2355 2349 2364 2360 2342 2363 2353 2347 2355 2357 2355 2348 2356 2353 2350 2353 2354 2360 2359 2352 2347 2354 2354 2350 2345 2349 2346 2348 2343 2352 2345 2346 2343 2351 2355 2341 2356 2345 2355 2355 2359 2351 2363 2354 2345 2346 2344 2359 2363 2436 2472 2464 2454 2447 2496 2521 2475 2450 2454 2447 2481 2458 2485 2459 2491 2493 2456 2489 2471 2496 2560 2487 2551 2651 0
2634 2641 2548 2533 2555 2545 2536 2511 2506 2532 2493 2505 2505 2531 2501 2508 2496 2501 2481 2483 2489 2466 2489 2472 2481 2469 2482 2476 2461 2463 2481 2465 2471 2462 2435 2381 2370 2367 2349 2358 2359 2352 2356 2353 2353 2354 2354 2344 2351 2351 2358 2356 2352 2347 2353 2351 2345 2353 2348 2353 2353 2349 2348 2356 2352 2354 2349 2353 2354 2353 2347 2342 2343 2347 2354 2353 2348 2350 2340 2349 2346 2353 2349 2351 2345 2352 2356 2352 2362 2340 2350 2352 2361 2388 2420 2447 2422 2477 2443 2460 2476 2451 2462 2458 2470 2452 2449 2453 2491 2493 2467 2547 2456 2418 2481 2500 2505 0 0 0
2870 2934 2780 2669 2640 2677 2576 2584 2528 2633 2533 2514 2523 2586 2524 2496 2515 2517 2500 2493 2472 2480 2479 2484 2472 2475 2489 2477 2479 2471 2469 2472 2479 2467 2454 2378 2357 2365 2370 2358 2359 2358 2361 2367 2365 2351 2357 2363 2356 2351 2363 2351 2346 2357 2353 2350 2357 2359 2353 2356 2356 2353 2362 2355 2369 2353 2352 2353 2357 2356 2350 2349 2352 2349 2346 2350 2352 2349 2343 2360 2353 2348 2354 2347 2348 2355 2350 2352 2354 2351 2354 2359 2372 2404 2462 2455 2450 2448 2461 2449 2439 2461 2455 2460 2442 2449 2455 2446 2464 2452 2472 2496 2470 2460 2554 2526 2527 2531 2571 0
0 0 3139 2796 2751 2880 2718 2612 2603 2718 2617 2592 2650 2704 2554 2533 2508 2533 2537 2532 2533 2531 2520 2498 2423 2499 2492 2502 2457 2483 2484 2476 2471 2488 2430 2376 2373 2363 2363 2361 2358 2368 2361 2350 2357 2359 2351 2361 2361 2357 2362 2358 2354 2348 2355 2342 2359 2359 2356 2351 2360 2348 2354 2355 2359 2355 2353 2353 2356 2355 2360 2360 2354 2350 2354 2351 2353 2355 2356 2355 2351 2352 2362 2343 2348 2362 2357 2357 2362 2349 2355 2365 2360 2405 2434 2460 2444 2451 2439 2452 2437 2442 2449 2449 2451 2459 2460 2444 2481 2460 2471 2456 2437 2478 2453 2474 2454 2461 2604 2616
3079 2778 2745 2745 2691 2724 2622 2579 2586 2600 2554 2578 2581 2580 2538 2510 2577 2558 2517 2537 2516 2542 2494 2501 2502 2472 2489 2484 2492 2465 2473 2499 2481 2468 2425 2371 2359 2357 2368 2364 2367 2361 2359 2358 2355 2360 2359 2349 2351 2349 2352 2352 2354 2351 2351 2357 2352 2357 2358 2353 2347 2350 2356 2351 2352 2346 2350 2360 2346 2349 2343 2344 2363 2352 2351 2355 2348 2348 2350 2346 2356 2349 2342 2342 2351 2356 2348 2357 2349 2346 2346 2360 2368 2369 2431 2438 2430 2449 2435 2455 2451 2445 2439 2436 2435 2440 2441 2463 2477 2490 2445 2442 2478 2445 2492 2464 2494 2474 2549 2512
2642 2579 2537 2548 2531 2538 2534 2517 2528 2536 2519 2508 2516 2544 2524 2497 2527 2515 2494 2486 2519 2511 2499 2524 2515 2475 2497 2499 2474 2490 2496 2476 2475 2494 2415 2376 2369 2369 2365 2358 2370 2365 2363 2361 2360 2363 2360 2363 2360 2357 2356 2354 2358 2356 2351 2364 2358 2360 2365 2349 2355 2360 2359 2366 2349 2349 2359 2356 2355 2351 2348 2352 2349 2355 2347 2352 2349 2358 2361 2351 2361 2350 2354 2361 2348 2356 2361 2357 2362 2363 2360 2361 2362 2406 2450 2457 2458 2447 2463 2427 2461 2456 2440 2454 2456 2438 2445 2437 2432 2449 2456 2447 2453 2479 2485 2455 2471 2527 2504 2550
2669 2609 2525 2529 2558 2539 2526 2532 2516 2528 2498 2497 2512 2495 2496 2503 2498 2511 2495 2500 2480 2500 2497 2490 2486 2492 2482 2486 2475 2472 2474 2473 2471 2472 2439 2369 2356 2358 2358 2359 2361 2367 2361 2361 2362 2368 2351 2359 2363 2363 2360 2354 2377 2355 2354 2360 2359 2358 2352 2360 2356 2359 2360 2357 2356 2358 2353 2351 2348 2352 2354 2352 2355 2353 2358 2354 2350 2349 2351 2353 2353 2355 2346 2351 2356 2350 2353 2360 2350 2356 2359 2361 2363 2412 2443 2463 2467 2452 2485 2474 2460 2460 2452 2472 2462 2476 2479 2464 2467 2459 2468 2451 2483 2473 2494 2477 2506 2558 2543 2554
2772 2633 2525 2525 2542 2550 2503 2499 2511 2537 2505 2507 2507 2538 2501 2496 2499 2516 2498 2494 2492 2517 2489 2500 2480 2488 2479 2471 2482 2476 2500 2472 2468 2465 2437 2383 2359 2366 2369 2364 2366 2361 2355 2366 2362 2364 2353 2367 2359 2361 2354 2348 2363 2351 2349 2353 2358 2360 2351 2353 2363 2351 2362 2355 2362 2356 2347 2352 2356 2352 2355 2354 2351 2349 2348 2358 2349 2352 2356 2349 2351 2348 2351 2358 2348 2358 2360 2359 2362 2357 2363 2358 2372 2410 2447 2447 2485 2476 2441 2468 2470 2469 2422 2471 2452 2492 2449 2493 2483 2545 2487 2505 2506 2623 2569 2594 2604 0 0 0
2657 2632 2551 2526 2514 2503 2526 2533 2531 2506 2515 2490 2479 2511 2495 2507 2491 2522 2495 2480 2486 2491 2490 2472 2483 2471 2455 2487 2469 2466 2474 2479 2458 2454 2407 2382 2365 2378 2366 2367 2366 2361 2364 2356 2360 2361 2359 2365 2353 2362 2364 2357 2360 2373 2358 2356 2363 2349 2355 2351 2357 2348 2355 2357 2351 2363 2353 2360 2355 2353 2354 2356 2348 2359 2357 2357 2349 2352 2355 2359 2349 2355 2352 2353 2359 2355 2354 2354 2351 2353 2359 2367 2385 2415 2439 2455 2439 2460 2489 2466 2457 2481 2457 2459 2464 2452 2527 2528 2494 2516 2468 2443 2552 2573 2583 2521 2623 0 0 0
0 2876 2641 2697 2598 2662 2616 2562 2558 2547 2553 2508 2529 2545 2491 2506 2505 2523 2500 2486 2497 2506 2497 2482 2479 2490 2477 2480 2467 2487 2475 2463 2472 2467 2431 2373 2364 2376 2367 2359 2363 2363 2365 2367 2364 2364 2364 2363 2364 2359 2365 2354 2351 2363 2354 2353 2361 2353 2362 2354 2351 2358 2360 2353 2351 2361 2356 2360 2359 2352 2350 2354 2341 2348 2354 2361 2351 2359 2358 2352 2353 2353 2351 2355 2354 2351 2351 2359 2353 2359 2355 2361 2382 2437 2436 2450 2465 2458 2459 2463 2452 2465 2460 2443 2457 2442 2471 2474 2462 2479 2463 2487 2505 2474 2466 2467 2606 2482 2581 2760
0 0 3020 2809 2707 2841 2830 2811 2732 2621 2615 2556 2602 2648 2597 2542 2576 2566 2559 2538 2546 2589 2516 2513 2507 2481 2521 2509 2494 2477 2506 2474 2496 2470 2429 2375 2380 2363 2367 2371 2361 2366 2358 2362 2364 2362 2364 2359 2360 2359 2365 2355 2360 2354 2363 2353 2359 2363 2356 2357 2353 2357 2358 2360 2361 2359 2356 2348 2352 2353 2366 2351 2359 2346 2355 2357 2350 2355 2350 2356 2352 2353 2360 2351 2358 2360 2351 2357 2355 2360 2350 2352 2362 2423 2442 2459 2442 2468 2454 2449 2463 2458 2465 2446 2458 2440 2467 2452 2464 2450 2473 2486 2472 2469 2494 2490 2476 2498 2554 2598
2828 2815 2742 2601 2597 2540 2657 2631 2635 2677 2647 2561 2529 2656 2612 2628 2600 2580 2542 2519 2616 2482 2542 2574 2534 2517 2524 2486 2512 2471 2503 2467 2507 2474 2399 2377 2382 2374 2372 2367 2362 2364 2357 2352 2361 2363 2367 2358 2364 2360 2360 2357 2366 2351 2354 2355 2348 2356 2366 2364 2366 2354 2356 2359 2353 2354 2356 2358 2355 2361 2354 2364 2354 2364 2346 2362 2350 2353 2359 2353 2351 2362 2355 2357 2357 2352 2358 2357 2355 2366 2364 2362 2370 2421 2436 2450 2430 2417 2454 2447 2415 2451 2445 2426 2415 2452 2427 2428 2459 2427 2452 2448 2488 2462 2513 2492 2437 2522 2476 2596
2704 2672 2697 2515 2476 2489 2455 2449 2501 2470 2427 2476 2458 2428 2442 2429 2440 2447 2406 2418 2391 2391 2402 2424 2435 2397 2420 2408 2440 2421 2433 2426 2414 2423 2391 2363 2382 2369 2365 2369 2375 2370 2367 2369 2371 2358 2365 2362 2365 2369 2359 2367 2359 2356 2362 2358 2353 2358 2362 2353 2360 2360 2365 2368 2352 2352 2356 2354 2360 2359 2359 2368 2358 2354 2360 2347 2356 2348 2350 2357 2354 2364 2357 2365 2357 2357 2353 2357 2366 2351 2350 2368 2380 2434 2442 2439 2441 2460 2456 2454 2455 2447 2462 2451 2455 2451 2457 2460 2451 2473 2479 2461 2478 2442 2488 2543 2526 2491 2520 2493
2544 2532 2472 2404 2516 2530 2437 2488 2536 2576 2465 2479 2576 2593 2653 2629 2692 2584 2563 2439 2430 2498 2458 2537 2512 2473 2456 2516 2437 2446 2453 2476 2448 2397 2390 2376 2379 2383 2377 2380 2372 2368 2364 2357 2373 2368 2361 2367 2358 2356 2359 2363 2361 2361 2362 2348 2361 2363 2369 2366 2366 2354 2364 2374 2355 2365 2360 2369 2358 2358 2361 2360 2363 2362 2357 2359 2357 2355 2353 2359 2361 2351 2358 2359 2358 2359 2368 2355 2366 2352 2353 2362 2367 2418 2434 2478 2477 2483 2462 2477 2456 2468 2472 2474 2475 2470 2465 2456 2449 2507 2485 2470 2463 2495 2522 2436 2520 2463 2456 2544
2504 2478 2444 2442 2459 2464 2436 2457 2433 2435 2429 2428 2442 2417 2421 2430 2423 2420 2422 2420 2429 2409 2421 2403 2439 2447 2398 2472 2443 2449 2447 2507 2480 2387 2374 2365 2375 2376 2375 2365 2370 2370 2373 2371 2369 2362 2367 2360 2362 2360 2364 2363 2360 2371 2374 2359 2355 2366 2347 2361 2368 2362 2367 2351 2366 2365 2350 2357 2344 2360 2369 2359 2365 2361 2365 2351 2361 2358 2363 2347 2356 2356 2361 2361 2364 2361 2357 2358 2354 2361 2363 2374 2382 2415 2451 2467 2451 2489 2472 2464 2502 2454 2463 2448 2476 2460 2480 2529 2524 2498 2572 2485 2542 2680 2518 2643 2692 0 0 0
2435 2451 2433 2426 2419 2403 2423 2412 2403 2423 2424 2397 2409 2408 2423 2389 2411 2403 2394 2389 2389 2410 2400 2402 2403 2384 2397 2400 2390 2398 2384 2405 2399 2380 2385 2374 2385 2378 2370 2378 2375 2365 2373 2376 2372 2365 2371 2363 2357 2361 2364 2367 2359 2361 2361 2366 2365 2363 2358 2357 2360 2359 2366 2374 2361 2362 2363 2356 2365 2362 2362 2362 2361 2361 2369 2360 2359 2353 2361 2357 2354 2357 2356 2356 2355 2358 2366 2358 2360 2363 2362 2361 2376 2372 2384 2397 2374 2395 2409 2404 2416 2412 2386 2414 2462 2417 2445 2445 2445 2523 2595 2616 0 0 0 0 0 0 0 0
2476 2453 2425 2433 2431 2420 2420 2407 2419 2399 2414 2411 2398 2397 2395 2407 2396 2392 2401 2396 2391 2392 2387 2390 2386 2388 2396 2395 2384 2374 2390 2385 2394 2379 2378 2363 2381 2366 2359 2375 2373 2369 2358 2373 2368 2370 2370 2363 2362 2361 2363 2359 2360 2363 2362 2373 2357 2366 2364 2365 2351 2366 2360 2363 2364 2361 2356 2353 2352 2364 2354 2358 2351 2359 2353 2360 2366 2363 2357 2362 2370 2359 2361 2359 2361 2361 2363 2353 2365 2370 2357 2351 2358 2379 2361 2385 2389 2437 2370 2381 2364 2379 2391 2364 2380 2417 2382 2372 2398 2410 2407 2446 2434 2395 2383 2510 2371 2456 0 0
2471 2440 2414 2416 2418 2428 2419 2414 2413 2419 2415 2404 2408 2403 2427 2381 2404 2410 2394 2401 2402 2392 2395 2386 2380 2380 2411 2392 2386 2383 2380 2381 2375 2380 2393 2384 2380 2379 2369 2380 2378 2373 2369 2378 2376 2359 2380 2371 2361 2376 2378 2374 2372 2372 2368 2374 2372 2362 2371 2366 2362 2363 2365 2362 2370 2364 2373 2368 2364 2372 2365 2372 2359 2360 2371 2374 2356 2370 2359 2357 2362 2379 2359 2371 2359 2360 2365 2364 2365 2367 2369 2377 2378 2376 2375 2375 2401 2390 2400 2373 2377 2380 2378 2391 2406 2400 2393 2384 2383 2398 2455 2416 2451 2476 2572 0 0 0 0 2605
2467 2417 2454 2410 2411 2401 2417 2425 2400 2398 2394 2414 2384 2398 2399 2394 2394 2389 2388 2399 2395 2392 2387 2382 2374 2389 2392 2386 2378 2385 2379 2369 2388 2380 2369 2388 2366 2377 2369 2369 2375 2378 2376 2366 2374 2363 2372 2370 2371 2373 2362 2366 2361 2369 2355 2370 2364 2365 2364 2363 2360 2357 2360 2364 2353 2352 2352 2351 2363 2367 2358 2361 2356 2350 2346 2363 2360 2356 2367 2363 2360 2346 2353 2354 2365 2353 2358 2361 2365 2362 2366 2353 2370 2355 2370 2357 2375 2371 2376 2352 2360 2378 2361 2365 2360 2366 2378 2354 2374 2388 2413 2391 2378 2341 2394 2380 2413 2468 2387 2475
2481 2461 2425 2443 2434 2438 2421 2429 2408 2411 2422 2399 2407 2399 2407 2389 2394 2406 2394 2396 2393 2396 2410 2395 2394 2406 2392 2402 2388 2382 2380 2393 2392 2379 2386 2389 2376 2382 2383 2365 2371 2373 2377 2374 2372 2381 2369 2369 2360 2367 2377 2368 2360 2365 2369 2362 2371 2365 2361 2358 2361 2369 2368 2373 2369 2369 2350 2362 2372 2363 2354 2361 2355 2365 2363 2364 2361 2358 2361 2370 2369 2379 2365 2368 2370 2372 2363 2361 2371 2368 2364 2367 2383 2381 2369 2360 2371 2370 2380 2365 2378 2366 2373 2368 2381 2373 2371 2377 2375 2386 2413 2413 2362 2431 2390 2396 2477 2446 2488 2617
2399 2428 2451 2419 2451 2416 2446 2400 2401 2392 2400 2417 2405 2401 2403 2394 2401 2393 2386 2394 2393 2380 2386 2381 2400 2376 2378 2380 2377 2374 2377 2381 2377 2391 2386 2374 2367 2382 2368 2372 2373 2372 2376 2376 2364 2360 2375 2357 2363 2366 2362 2364 2365 2372 2363 2367 2362 2360 2367 2350 2356 2353 2367 2356 2350 2367 2361 2362 2357 2353 2358 2351 2356 2363 2360 2367 2361 2352 2377 2364 2364 2360 2363 2361 2353 2351 2364 2368 2366 2366 2348 2356 2375 2345 2376 2379 2362 2364 2364 2364 2364 2366 2362 2362 2361 2370 2368 2363 2369 2350 2350 2369 2354 2391 2409 2390 2438 2400 2461 2524
2498 2474 2433 2429 2419 2443 2440 2407 2424 2413 2423 2401 2412 2399 2403 2398 2412 2401 2392 2402 2393 2399 2397 2388 2388 2393 2392 2380 2377 2384 2388 2372 2377 2377 2375 2390 2369 2374 2379 2380 2375 2367 2368 2362 2372 2377 2365 2360 2358 2366 2354 2365 2361 2370 2360 2361 2355 2358 2362 2365 2366 2352 2364 2354 2368 2347 2365 2371 2369 2364 2361 2359 2365 2359 2356 2368 2360 2362 2351 2365 2353 2357 2363 2361 2354 2363 2370 2373 2359 2362 2356 2356 2362 2365 2359 2358 2358 2370 2362 2351 2356 2370 2362 2358 2358 2357 2354 2351 2374 2356 2351 2364 2381 2387 2371 2413 2413 2437 2459 2638
2524 2494 2453 2427 2443 2443 2441 2407 2434 2418 2412 2407 2409 2393 2411 2398 2403 2397 2396 2390 2391 2388 2400 2393 2385 2386 2375 2391 2384 2386 2396 2391 2376 2378 2388 2382 2382 2372 2379 2376 2380 2375 2381 2361 2371 2366 2353 2369 2368 2369 2359 2365 2366 2360 2361 2361 2362 2351 2356 2373 2358 2364 2364 2364 2364 2365 2352 2355 2360 2360 2368 2361 2366 2349 2353 2360 2354 2365 2346 2362 2359 2346 2359 2351 2348 2358 2367 2358 2370 2379 2363 2372 2367 2342 2359 2360 2361 2365 2368 2375 2347 2375 2358 2361 2358 2371 2372 2369 2381 2355 2360 2375 2384 2389 2418 2423 2401 2454 2488 2588
2543 2487 2449 2430 2441 2461 2423 2418 2420 2411 2410 2420 2404 2399 2410 2396 2390 2387 2406 2401 2386 2392 2409 2384 2396 2399 2399 2375 2384 2386 2411 2385 2396 2389 2393 2391 2370 2377 2379 2374 2370 2380 2374 2370 2358 2371 2365 2381 2367 2376 2365 2371 2359 2363 2366 2366 2373 2362 2356 2373 2342 2366 2356 2369 2366 2371 2365 2364 2366 2368 2364 2361 2355 2354 2358 2363 2369 2358 2368 2362 2362 2372 2369 2361 2360 2363 2363 2367 2352 2370 2348 2374 2369 2369 2353 2353 2354 2382 2366 2363 2376 2366 2364 2382 2356 2372 2369 2363 2359 2348 2386 2384 2383 2410 2383 2439 2386 2434 2532 2677
2610 2482 2486 2494 2449 2479 2473 2419 2440 2420 2413 2432 2398 2413 2410 2400 2412 2394 2399 2391 2394 2402 2398 2376 2395 2378 2392 2393 2385 2372 2380 2398 2383 2390 2398 2364 2386 2386 2379 2377 2365 2367 2373 2366 2375 2367 2376 2370 2373 2370 2372 2365 2371 2366 2374 2359 2357 2356 2363 2363 2360 2353 2366 2352 2372 2367 2360 2375 2376 2367 2369 2354 2366 2354 2368 2366 2370 2361 2358 2362 2361 2348 2362 2359 2339 2365 2363 2370 2364 2367 2368 2373 2369 2353 2362 2357 2377 2380 2395 2361 2358 2358 2371 2368 2354 2364 2365 2362 2354 2372 2386 2371 2381 2393 2403 2469 2488 2460 2513 2530
2498 2534 2487 2465 2436 2454 2438 2448 2422 2435 2418 2410 2402 2397 2412 2411 2394 2399 2414 2389 2420 2401 2398 2394 2376 2371 2376 2394 2384 2397 2375 2400 2394 2393 2394 2390 2375 2388 2378 2365 2371 2377 2380 2368 2370 2373 2371 2372 2355 2374 2365 2365 2376 2361 2368 2361 2354 2367 2353 2372 2355 2352 2370 2371 2353 2370 2367 2355 2353 2385 2357 2356 2361 2357 2366 2358 2364 2362 2364 2349 2358 2355 2364 2358 2350 2342 2352 2367 2369 2364 2376 2364 2352 2391 2368 2353 2382 2367 2363 2372 2353 2356 2372 2373 2376 2356 2373 2360 2372 2358 2364 2373 2383 2402 2467 2385 2357 2587 2508 2659
2630 2574 2488 2466 2476 2491 2503 2445 2454 2431 2453 2470 2395 2437 2408 2423 2412 2414 2409 2407 2406 2396 2390 2394 2399 2399 2378 2388 2361 2376 2382 2385 2374 2382 2392 2400 2370 2384 2376 2366 2397 2376 2371 2367 2355 2385 2374 2373 2371 2362 2369 2371 2366 2348 2365 2356 2352 2382 2364 2369 2356 2358 2354 2379 2352 2367 2362 2375 2359 2372 2370 2366 2365 2349 2352 2369 2365 2374 2371 2373 2357 2367 2365 2367 2365 2340 2355 2382 2345 2373 2379 2359 2347 2375 2371 2384 2391 2366 2355 2353 2368 2378 2376 2374 2370 2368 2371 2364 2359 2381 2352 2395 2364 2397 2414 2424 2424 2528 2573 2586
2728 2593 2505 2461 2552 2517 2504 2459 2417 2428 2431 2437 2454 2440 2395 2418 2410 2396 2418 2422 2414 2405 2376 2401 2378 2411 2394 2383 2385 2397 2375 2367 2392 2415 2372 2372 2390 2379 2373 2358 2375 2368 2383 2360 2368 2361 2385 2359 2361 2382 2363 2366 2359 2368 2367 2370 2352 2364 2366 2379 2381 2387 2368 2373 2368 2362 2368 2330 2364 2375 2377 2363 2347 2358 2370 2362 2379 2374 2370 2369 2354 2350 2367 2383 2353 2387 2347 2373 2366 2363 2368 2398 2376 2392 2351 2365 2354 2366 2348 2359 2376 2390 2343 2398 2371 2364 2367 2370 2390 2380 2402 2403 2381 2445 2421 2446 2637 2535 2600 0
2765 2591 2604 2497 2524 2564 2594 2498 2463 2428 2419 2470 2447 2419 2455 2416 2383 2391 2427 2416 2396 2403 2401 2380 2382 2390 2382 2397 2397 2400 2391 2376 2374 2404 2398 2376 2383 2377 2384 2376 2374 2352 2377 2369 2367 2393 2361 2361 2368 2346 2364 2376 2355 2373 2353 2343 2356 2346 2369 2360 2374 2354 2378 2365 2369 2337 2356 2369 2350 2353 2378 2367 2357 2346 2368 2373 2371 2365 2361 2335 2351 2361 2353 2364 2341 2351 2362 2337 2358 2362 2372 2375 2364 2347 2375 2347 2356 2369 2366 2358 2337 2363 2371 2358 2360 2343 2352 2376 2373 2376 2372 2442 2402 2399 2381 2476 2441 2602 0 0
2861 2722 2602 2608 2552 2581 2641 2477 2472 2453 2446 2459 2487 2446 2421 2418 2413 2408 2403 2429 2432 2389 2381 2389 2387 2411 2415 2419 2413 2396 2398 2411 2384 2394 2408 2381 2381 2378 2384 2386 2359 2372 2393 2365 2362 2368 2360 2375 2382 2364 2362 2386 2374 2347 2365 2363 2371 2386 2353 2359 2348 2370 2356 2383 2351 2385 2369 2363 2350 2365 2346 2364 2359 2340 2354 2374 2345 2368 2358 2383 2370 2366 2358 2387 2370 2366 2376 2369 2385 2347 2356 2385 2387 2347 2399 2374 2368 2377 2381 2374 2350 2378 2384 2355 2368 2360 2360 2382 2411 2427 2437 2429 2482 2521 2522 2609 0 2759 0 0
3049 2908 2871 2621 2671 2645 2713 2584 2472 2485 2474 2461 2420 2456 2439 2429 2398 2412 2409 2384 2418 2406 2413 2403 2378 2403 2394 2391 2387 2405 2406 2395 2387 2396 2384 2397 2407 2396 2388 2396 2379 2355 2358 2376 2353 2371 2371 2369 2364 2364 2348 2365 2381 2390 2356 2369 2369 2378 2340 2376 2360 2373 2381 2367 2389 2361 2376 2362 2349 2367 2353 2356 2336 2383 2352 2339 2375 2365 2376 2368 2361 2358 2378 2362 2376 2363 2368 2359 2373 2357 2363 2392 2357 2401 2362 2352 2349 2383 2375 2355 2352 2354 2360 2342 2381 2397 2383 2400 2386 2438 2518 2405 2428 2483 2565 0 0 0 0 0
0 3103 2955 2737 2751 0 0 2866 2608 2487 2492 2508 2479 2448 2457 2446 2455 2396 2408 2464 2498 2442 2438 2423 2402 2391 2405 2453 2385 2421 2392 2392 2380 2393 2423 2408 2412 2377 2378 2337 2353 2364 2386 2390 2409 2379 2387 2409 2358 2380 2363 2381 2378 2343 2352 2378 2367 2372 2349 2382 2340 2384 2328 2377 2369 2374 2352 2324 2401 2360 2378 2357 2356 2352 2340 2383 2367 2365 2368 2396 2334 2389 2380 2359 2378 2382 2355 2362 2357 2364 2342 2417 2400 2390 2406 2367 2377 2376 2373 2371 2356 2365 2393 2381 2394 2408 2360 2378 2374 2407 2475 2471 2550 2508 2593 2635 0 0 0 0
3585 3380 3196 2976 2866 0 0 0 2672 2619 2636 2543 2471 2588 2528 2488 2445 2494 2427 2459 2468 2472 2452 2458 2418 2451 2432 2429 2383 2438 2432 2459 2392 2397 2401 2392 2419 2412 2403 2372 2375 2389 2406 2381 2381 2378 2393 2362 2348 2380 2345 2371 2402 2374 2367 2367 2396 2372 2372 2357 2374 2350 2365 2395 2362 2373 2346 2389 2369 2373 2358 2379 2375 2350 2381 2378 2368 2339 2387 2358 2428 2330 2359 2402 2361 2368 2403 2396 2374 2375 2383 2398 2400 2368 2381 2350 2415 2398 2399 2386 2446 2402 2374 2409 2419 2391 2438 2383 2419 2432 2529 2454 2611 2559 2503 2792 0 0 0 0
3998 3482 0 0 0 0 0 0 0 0 2634 2616 2594 2619 2689 2643 2526 2518 2485 2437 2457 2544 2573 2387 2421 2468 2453 2429 2444 2452 2416 2409 2410 2355 2391 2367 2414 2378 2374 2396 2333 2404 2426 2388 2366 2340 2391 2373 2380 2347 2376 2353 2329 2354 2366 2375 2351 2347 2389 2315 2371 2392 2350 2352 2368 2331 2328 2370 2369 2329 2376 2338 2337 2352 2339 2385 2344 2375 2347 2384 2333 2362 2371 2388 2324 2376 2373 2377 2383 2403 2383 2403 2390 2386 2358 2369 2390 2375 2360 2390 2413 2355 2406 2395 2467 2471 2365 2411 2425 2522 2458 2329 2561 0 0 0 0 0 0 0
4065 3950 3352 0 0 0 0 0 0 0 0 2583 0 0 0 0 2560 2550 2486 2467 2541 2507 2488 2615 2489 2389 2520 2465 2416 2465 2472 2444 2397 2490 2377 2422 2433 2468 2423 2394 2352 2387 2407 2365 2387 2435 2394 2332 2415 2344 2351 2370 2331 2358 2372 2356 2353 2346 2380 2358 2352 2359 2404 2381 2335 2366 2346 2357 2362 2363 2368 2352 2397 2346 2374 2358 2418 2407 2347 2360 2350 2369 2353 2371 2368 2404 2416 2361 2362 2395 2322 2374 2414 2377 2372 2366 2391 2458 2409 2389 2442 2443 2376 2439 2400 2449 2486 2431 2454 2499 2431 2444 2627 0 0 0 0 0 0 0
