0 0 0 2814 0 0 0 0 0 0 0 0 0 0 2509 2414 2518 2594 2433 2622 2451 2489 2467 2517 2342 2379 2506 2367 2286 2397 2413 2467 2574 0 0 2460 2501 2516 0 0 2352 2397 2361 2345 2408 2288 2344 2369 2361 2375 2247 2312 2334 2394 2361 2312 2358 2309 2306 2343 2373 2344 2297 2297 2318 2295 2324 2314 2376 2322 2284 2330 2289 2341 2326 2352 2317 2307 2318 2357 2410 2331 2385 2379 2386 2310 2351 2321 2355 2345 2420 2422 2341 2285 2352 0 2402 2415 0 2355 2366 2331 2371 2323 2317 2346 2336 2407 2447 2497 0 0 0 0 0 0 0 0 0 0
0 0 2911 2646 2757 2808 0 0 2775 2616 2640 2437 2554 2581 2442 2455 2413 2455 2456 2401 2421 2405 2500 2426 2444 2493 2383 2353 2430 2424 2367 2420 2320 0 0 0 2508 2505 0 2441 2371 2369 2352 2352 2365 2369 2339 2358 2336 2346 2376 2335 2351 2356 2304 2360 2372 2339 2342 2325 2311 2356 2337 2346 2351 2330 2304 2309 2300 2337 2356 2344 2359 2348 2326 2358 2339 2366 2368 2403 2345 2351 2391 2358 2366 2338 2379 2348 2345 2344 2445 2317 2373 2354 2383 2310 2372 2338 2405 2293 2400 2392 2362 2349 2397 2392 2366 2375 2344 2328 2323 2460 0 0 0 0 0 0 0 0
3022 2976 2742 2728 2801 2730 2691 2559 2468 2463 2494 2480 2556 2502 2504 2482 2445 2447 2432 2422 2383 2456 2460 2398 2395 2408 2429 2404 2409 2401 2391 2396 2428 2441 0 0 2488 2464 0 2367 2345 2344 2404 2348 2373 2373 2397 2399 2362 2363 2436 2366 2371 2370 2355 2376 2340 2309 2327 2348 2377 2352 2328 2365 2329 2375 2345 2342 2344 2357 2336 2332 2356 2366 2365 2355 2356 2355 2313 2351 2366 2358 2371 2361 2344 2383 2358 2342 2351 2352 2375 2368 2415 2355 2325 2393 2412 2357 2361 2373 2407 2358 2355 2369 2410 2346 2340 2401 2378 2457 2391 2341 2449 0 0 0 0 0 0 0
0 2844 2853 2817 2688 2614 2614 2520 2495 2628 2478 2495 2509 2527 2470 2429 2465 2411 2436 2469 2418 2450 2393 2458 2384 2442 2362 2396 2374 2383 2364 2342 2370 2427 2472 2390 2426 2399 2344 2426 2357 2359 2369 2373 2399 2369 2345 2366 2371 2392 2338 2358 2352 2332 2347 2377 2375 2323 2351 2363 2342 2318 2358 2365 2341 2358 2362 2327 2334 2339 2335 2332 2334 2358 2307 2374 2348 2337 2335 2331 2353 2355 2347 2347 2366 2370 2366 2335 2363 2346 2380 2353 2326 2337 2365 2326 2353 2377 2424 2377 2318 2388 2341 2366 2377 2371 2371 2316 2391 2363 2441 2408 2397 2572 0 0 0 0 0 0
0 2569 2619 2507 2504 2417 2426 2416 2387 2434 2450 2416 2387 2387 2402 2380 2343 2361 2399 2371 2386 2369 2338 2352 2344 2363 2398 2357 2358 2334 2360 2309 2327 2338 2338 2357 2321 2331 2318 2321 2324 2341 2354 2329 2321 2360 2351 2326 2325 2321 2301 2336 2326 2324 2341 2303 2337 2325 2333 2322 2331 2322 2314 2325 2312 2311 2319 2318 2312 2349 2316 2318 2330 2316 2312 2321 2314 2338 2309 2324 2294 2334 2304 2303 2326 2323 2321 2327 2306 2290 2312 2329 2300 2335 2322 2318 2308 2283 2309 2278 2326 2293 2330 2306 2308 2292 2332 2356 2307 2334 2328 2342 2315 2349 2402 0 0 0 0 0
2792 2646 2588 2475 2425 2477 2426 2481 2419 2456 2432 2408 2435 2397 2417 2391 2433 2373 2415 2403 2386 2407 2450 2390 2362 2382 2392 2368 2368 2363 2356 2344 2350 2366 2348 2344 2361 2357 2362 2371 2355 2342 2346 2357 2383 2382 2343 2358 2345 2353 2359 2365 2345 2363 2338 2328 2335 2339 2341 2340 2358 2329 2368 2325 2345 2337 2325 2344 2353 2338 2350 2332 2332 2364 2347 2336 2348 2343 2333 2353 2356 2322 2340 2365 2344 2359 2359 2342 2342 2334 2352 2322 2331 2334 2347 2313 2354 2363 2299 2324 2374 2316 2344 2358 2342 2338 2371 2359 2316 2388 2365 2342 2307 2322 2436 2460 0 0 0 0
2681 2646 2617 2485 2440 2446 2422 2435 2438 2407 2411 2449 2426 2414 2377 2403 2395 2442 2414 2400 2365 2377 2403 2406 2377 2387 2371 2364 2362 2347 2356 2355 2386 2366 2349 2382 2361 2351 2369 2350 2355 2350 2363 2348 2359 2358 2362 2350 2351 2371 2340 2352 2342 2353 2339 2338 2333 2350 2353 2329 2355 2342 2351 2366 2336 2339 2327 2323 2353 2353 2351 2339 2333 2359 2326 2351 2345 2355 2340 2346 2340 2316 2339 2333 2349 2325 2339 2329 2352 2364 2322 2334 2355 2359 2327 2335 2341 2349 2357 2338 2343 2338 2345 2331 2320 2345 2343 2354 2380 2335 2348 2330 2334 2318 2347 2351 2429 0 0 0
2463 2534 2433 2448 2421 2398 2403 2428 2414 2364 2395 2370 2382 2380 2391 2371 2357 2376 2373 2378 2373 2356 2366 2361 2363 2366 2375 2356 2375 2330 2357 2366 2337 2341 2352 2359 2365 2328 2351 2332 2350 2334 2355 2325 2334 2326 2321 2341 2355 2331 2316 2315 2329 2331 2327 2329 2334 2307 2323 2317 2324 2319 2320 2327 2318 2332 2323 2317 2334 2313 2332 2318 2326 2320 2314 2317 2323 2315 2315 2326 2345 2317 2343 2315 2328 2307 2351 2319 2305 2320 2332 2309 2325 2331 2320 2295 2328 2323 2345 2314 2313 2313 2332 2348 2301 2326 2325 2329 2334 2327 2345 2329 2362 2313 2299 2319 2327 0 0 0
2656 2562 2429 2454 2446 2445 2404 2425 2400 2400 2421 2403 2414 2405 2394 2395 2402 2391 2419 2404 2412 2383 2387 2400 2371 2386 2381 2378 2362 2367 2385 2375 2365 2370 2363 2332 2358 2354 2352 2361 2351 2353 2364 2355 2340 2353 2356 2333 2355 2349 2355 2355 2365 2344 2338 2354 2365 2351 2345 2340 2359 2337 2330 2328 2349 2356 2356 2328 2337 2356 2354 2344 2357 2344 2342 2360 2354 2339 2330 2367 2304 2331 2345 2334 2329 2350 2341 2351 2360 2343 2330 2336 2341 2364 2341 2334 2336 2335 2315 2328 2344 2352 2315 2340 2349 2334 2364 2360 2332 2383 2367 2390 2362 2331 2385 2353 2361 2385 2365 0
2648 2540 2449 2418 2412 2421 2407 2408 2414 2428 2430 2377 2391 2395 2409 2399 2403 2386 2384 2390 2392 2402 2398 2391 2372 2359 2391 2380 2374 2358 2376 2367 2371 2346 2379 2358 2344 2364 2364 2353 2354 2351 2361 2363 2339 2357 2350 2348 2333 2346 2346 2355 2357 2348 2342 2345 2349 2352 2364 2353 2348 2338 2335 2338 2354 2337 2345 2352 2345 2347 2339 2344 2337 2340 2343 2335 2352 2335 2349 2334 2330 2342 2349 2335 2337 2342 2335 2340 2313 2307 2349 2344 2341 2353 2325 2342 2348 2334 2342 2338 2347 2341 2347 2339 2353 2372 2352 2346 2334 2370 2354 2369 2368 2420 2348 2368 2383 2367 2343 2380
2457 2451 2396 2455 2424 2399 2421 2399 2390 2418 2368 2396 2378 2388 2398 2383 2375 2386 2395 2371 2386 2379 2392 2371 2369 2367 2370 2364 2361 2389 2362 2372 2348 2365 2357 2370 2347 2372 2352 2353 2355 2362 2353 2358 2342 2346 2364 2335 2333 2340 2358 2356 2356 2358 2349 2351 2343 2350 2340 2346 2349 2327 2356 2329 2340 2347 2337 2331 2327 2337 2356 2350 2349 2335 2347 2328 2340 2349 2344 2335 2345 2349 2341 2336 2334 2347 2350 2327 2337 2312 2347 2354 2319 2335 2335 2336 2337 2327 2341 2335 2331 2348 2339 2335 2341 2323 2341 2334 2344 2331 2366 2343 2338 2311 2367 2359 2354 2355 2340 2372
2462 2472 2439 2436 2417 2416 2421 2416 2403 2409 2380 2405 2405 2392 2393 2389 2385 2396 2388 2377 2396 2374 2381 2402 2358 2384 2383 2364 2372 2371 2385 2366 2367 2373 2375 2362 2354 2364 2358 2353 2362 2366 2347 2355 2341 2362 2356 2373 2343 2357 2357 2349 2351 2358 2346 2363 2352 2352 2354 2356 2357 2344 2354 2361 2349 2333 2340 2345 2343 2354 2349 2341 2358 2360 2347 2337 2351 2353 2354 2358 2349 2352 2347 2335 2337 2343 2342 2341 2340 2360 2346 2359 2341 2344 2327 2353 2343 2336 2344 2338 2346 2346 2345 2344 2328 2327 2339 2344 2338 2307 2351 2369 2359 2336 2366 2301 2326 2392 2387 2347
2462 2440 2442 2412 2400 2439 2408 2396 2398 2412 2418 2397 2412 2403 2388 2387 2389 2381 2391 2381 2385 2379 2381 2385 2373 2368 2371 2377 2365 2376 2382 2363 2368 2357 2367 2366 2361 2360 2350 2358 2359 2359 2347 2348 2351 2368 2360 2359 2363 2373 2352 2359 2349 2355 2353 2344 2362 2353 2360 2353 2359 2361 2349 2341 2355 2348 2352 2349 2326 2356 2355 2361 2330 2355 2336 2354 2343 2342 2346 2350 2348 2345 2349 2341 2351 2342 2347 2341 2348 2343 2335 2345 2339 2350 2340 2356 2357 2357 2338 2337 2337 2330 2348 2350 2350 2341 2321 2348 2359 2328 2342 2346 2310 2372 2420 2403 2373 2403 2360 2501
2453 2460 2423 2415 2413 2434 2406 2403 2411 2386 2412 2390 2396 2380 2394 2384 2388 2371 2388 2391 2366 2385 2393 2368 2379 2372 2370 2365 2361 2372 2368 2370 2349 2368 2362 2370 2370 2359 2358 2356 2358 2364 2354 2366 2344 2358 2355 2362 2340 2349 2358 2338 2348 2356 2345 2339 2341 2342 2356 2337 2349 2338 2339 2353 2348 2347 2337 2337 2352 2335 2351 2334 2341 2335 2335 2343 2342 2352 2347 2356 2349 2342 2342 2343 2351 2353 2372 2349 2339 2332 2339 2341 2339 2343 2343 2330 2333 2338 2334 2354 2343 2352 2336 2337 2349 2337 2351 2350 2342 2357 2337 2347 2338 2379 2326 2362 2366 2374 2353 2490
2436 2438 2417 2383 2424 2415 2404 2395 2392 2384 2398 2404 2396 2406 2382 2384 2390 2382 2381 2408 2376 2385 2388 2392 2382 2378 2379 2372 2376 2370 2393 2363 2363 2362 2376 2375 2360 2378 2344 2372 2359 2347 2348 2360 2351 2352 2366 2371 2352 2357 2371 2343 2353 2349 2335 2349 2355 2345 2354 2349 2359 2352 2348 2345 2344 2346 2341 2353 2345 2353 2354 2350 2345 2362 2350 2349 2346 2353 2349 2353 2326 2345 2342 2359 2355 2338 2348 2333 2339 2341 2354 2326 2339 2337 2335 2344 2337 2353 2320 2332 2345 2340 2339 2342 2338 2329 2330 2339 2344 2337 2333 2326 2322 2348 2311 2345 2343 2332 2361 2376
2510 2463 2449 2465 2434 2448 2434 2427 2409 2430 2397 2428 2392 2412 2385 2418 2403 2407 2415 2401 2396 2398 2389 2396 2380 2397 2389 2376 2380 2377 2380 2382 2379 2387 2382 2360 2363 2370 2369 2378 2373 2367 2372 2364 2366 2364 2366 2360 2364 2364 2355 2357 2365 2352 2357 2364 2357 2347 2365 2360 2368 2365 2358 2351 2355 2353 2345 2357 2352 2341 2348 2350 2358 2342 2342 2355 2345 2358 2360 2352 2363 2363 2343 2350 2346 2353 2356 2352 2359 2344 2343 2357 2356 2346 2354 2342 2353 2355 2342 2353 2342 2345 2353 2338 2346 2352 2342 2355 2334 2358 2352 2355 2355 2357 2358 2358 2320 2386 2379 2416
2425 2405 2427 2437 2436 2426 2417 2403 2393 2408 2392 2376 2385 2380 2394 2399 2381 2394 2366 2375 2365 2373 2379 2381 2373 2384 2380 2387 2358 2362 2360 2376 2372 2362 2352 2364 2356 2357 2365 2357 2354 2358 2362 2354 2358 2363 2353 2353 2355 2351 2359 2353 2341 2347 2343 2347 2346 2346 2348 2358 2336 2346 2348 2343 2340 2336 2348 2346 2341 2343 2350 2336 2337 2344 2339 2347 2342 2349 2345 2356 2343 2339 2349 2345 2342 2351 2341 2345 2347 2350 2343 2345 2335 2348 2347 2337 2335 2330 2321 2338 2336 2337 2341 2334 2325 2350 2332 2329 2334 2344 2344 2328 2354 2358 2332 2320 2320 2337 2346 2400
2428 2397 2408 2419 2398 2400 2376 2384 2389 2383 2388 2382 2394 2382 2381 2375 2380 2377 2385 2393 2393 2382 2388 2376 2363 2378 2359 2360 2380 2372 2365 2367 2370 2360 2355 2369 2364 2364 2365 2349 2361 2353 2357 2362 2349 2355 2341 2339 2354 2363 2370 2354 2356 2344 2351 2352 2356 2353 2345 2342 2344 2353 2341 2343 2344 2346 2345 2347 2345 2344 2334 2358 2343 2343 2346 2352 2341 2347 2348 2356 2348 2346 2337 2341 2334 2350 2353 2334 2331 2344 2338 2337 2339 2338 2339 2338 2335 2330 2332 2340 2334 2350 2345 2334 2345 2345 2341 2331 2349 2331 2338 2329 2344 2341 2334 2366 2329 2346 2363 2356
2477 2444 2489 2428 2408 2408 2402 2419 2409 2394 2407 2394 2391 2394 2392 2386 2394 2386 2389 2402 2385 2380 2387 2390 2390 2373 2374 2379 2379 2377 2362 2374 2370 2369 2359 2377 2366 2369 2361 2369 2353 2358 2369 2366 2355 2359 2358 2361 2366 2349 2365 2374 2359 2354 2355 2362 2345 2360 2352 2347 2348 2348 2349 2350 2356 2355 2351 2342 2341 2346 2350 2345 2354 2353 2346 2353 2352 2362 2341 2357 2353 2352 2349 2350 2358 2349 2341 2348 2350 2349 2339 2345 2358 2354 2358 2349 2348 2348 2346 2361 2348 2356 2344 2336 2358 2345 2339 2337 2358 2357 2341 2350 2344 2365 2371 2390 2374 2374 2426 2464
2455 2413 2432 2412 2405 2397 2392 2381 2390 2380 2392 2386 2396 2378 2373 2377 2377 2380 2376 2392 2383 2388 2381 2380 2374 2377 2378 2372 2364 2379 2356 2363 2374 2365 2373 2373 2362 2350 2372 2360 2357 2362 2363 2357 2352 2346 2351 2348 2352 2349 2343 2355 2352 2357 2347 2356 2343 2349 2346 2349 2347 2333 2350 2347 2342 2336 2347 2342 2339 2344 2350 2332 2339 2352 2339 2334 2343 2342 2340 2339 2341 2343 2332 2353 2346 2333 2341 2338 2346 2334 2332 2342 2353 2335 2345 2347 2339 2332 2336 2336 2337 2349 2344 2339 2363 2346 2349 2328 2355 2335 2328 2343 2349 2343 2354 2337 2346 2357 2382 2348
2415 2453 2429 2392 2384 2383 2376 2379 2382 2384 2383 2376 2379 2377 2382 2391 2373 2368 2380 2374 2379 2376 2377 2371 2374 2372 2358 2367 2368 2363 2360 2368 2367 2356 2359 2367 2360 2358 2360 2346 2364 2354 2358 2354 2350 2352 2359 2352 2346 2354 2355 2352 2347 2347 2346 2347 2348 2358 2350 2344 2346 2345 2347 2340 2339 2349 2346 2346 2332 2347 2337 2338 2340 2341 2340 2332 2349 2360 2346 2343 2340 2349 2348 2353 2345 2345 2332 2339 2334 2335 2345 2328 2336 2334 2336 2328 2340 2340 2330 2344 2340 2335 2342 2337 2341 2331 2339 2339 2318 2347 2328 2332 2333 2337 2308 2316 2309 2292 2336 2284
2423 2438 2457 2413 2427 2396 2407 2388 2395 2386 2399 2394 2391 2401 2397 2389 2389 2399 2393 2381 2384 2387 2403 2382 2387 2376 2383 2374 2359 2368 2366 2360 2371 2359 2365 2365 2368 2371 2360 2367 2361 2364 2364 2370 2352 2354 2357 2366 2353 2354 2345 2361 2352 2355 2355 2357 2344 2348 2352 2351 2347 2353 2354 2351 2356 2349 2343 2342 2355 2352 2356 2347 2351 2351 2354 2351 2338 2353 2354 2348 2364 2354 2351 2356 2350 2345 2341 2350 2356 2351 2345 2343 2354 2340 2348 2344 2348 2347 2336 2342 2347 2341 2352 2342 2354 2345 2343 2363 2348 2383 2347 2337 2344 2379 2373 2338 2360 2360 2348 2389
2451 2423 2437 2396 2394 2404 2403 2377 2380 2394 2387 2389 2385 2387 2380 2381 2384 2382 2387 2369 2382 2377 2376 2391 2374 2371 2369 2364 2373 2372 2355 2364 2356 2365 2363 2364 2353 2357 2356 2357 2361 2339 2351 2351 2347 2357 2351 2355 2342 2339 2352 2356 2356 2349 2356 2345 2345 2339 2342 2348 2352 2345 2344 2346 2340 2345 2342 2339 2347 2344 2347 2346 2343 2339 2334 2337 2344 2344 2336 2354 2339 2338 2345 2349 2348 2330 2335 2336 2336 2338 2339 2345 2338 2323 2341 2331 2337 2333 2340 2334 2337 2340 2334 2334 2344 2337 2343 2332 2337 2346 2345 2325 2344 2355 2340 2350 2326 2342 2360 2386
2444 2422 2397 2437 2414 2399 2398 2382 2414 2392 2401 2406 2380 2376 2373 2369 2391 2384 2370 2378 2383 2369 2385 2377 2366 2364 2376 2368 2369 2361 2366 2369 2367 2371 2365 2355 2363 2352 2365 2362 2358 2366 2352 2354 2359 2351 2348 2357 2350 2349 2345 2354 2357 2348 2355 2352 2347 2350 2349 2345 2338 2342 2345 2344 2351 2342 2349 2347 2342 2350 2343 2343 2339 2346 2339 2342 2344 2349 2352 2343 2329 2346 2349 2346 2345 2335 2344 2340 2337 2327 2336 2343 2350 2338 2344 2340 2333 2342 2341 2339 2339 2348 2337 2335 2341 2340 2339 2346 2333 2344 2349 2331 2344 2324 2328 2347 2355 2328 2332 2326
2414 2410 2424 2411 2416 2408 2401 2386 2394 2396 2375 2394 2383 2380 2385 2375 2383 2382 2384 2385 2365 2374 2383 2377 2377 2364 2365 2382 2368 2362 2374 2365 2365 2350 2359 2358 2351 2362 2367 2360 2345 2355 2359 2356 2361 2354 2353 2357 2354 2349 2350 2359 2350 2346 2347 2353 2348 2356 2339 2344 2342 2340 2345 2348 2348 2334 2344 2361 2347 2348 2341 2341 2343 2342 2349 2334 2348 2335 2346 2348 2339 2341 2341 2344 2349 2348 2351 2346 2342 2333 2347 2347 2345 2334 2339 2343 2331 2337 2328 2344 2338 2335 2347 2332 2338 2334 2344 2353 2332 2322 2336 2339 2354 2325 2359 2356 2383 2356 2384 2396
2426 2423 2414 2465 2407 2397 2384 2402 2389 2402 2402 2383 2389 2386 2385 2383 2385 2375 2391 2364 2371 2380 2378 2390 2368 2366 2365 2369 2372 2363 2364 2368 2369 2354 2366 2348 2362 2363 2348 2358 2348 2357 2347 2357 2352 2355 2350 2358 2353 2359 2350 2363 2342 2350 2345 2350 2348 2348 2348 2343 2345 2344 2344 2354 2349 2340 2342 2347 2341 2349 2332 2339 2347 2343 2337 2334 2350 2353 2340 2351 2337 2346 2339 2342 2343 2336 2336 2340 2344 2337 2344 2339 2337 2342 2340 2334 2346 2348 2337 2345 2335 2345 2341 2341 2330 2336 2338 2340 2320 2348 2343 2344 2349 2339 2338 2351 2351 2346 2328 2382
2411 2409 2403 2414 2409 2390 2382 2396 2375 2380 2382 2381 2379 2386 2374 2384 2377 2382 2373 2374 2370 2370 2370 2374 2380 2377 2374 2376 2372 2361 2364 2371 2362 2371 2362 2363 2362 2356 2357 2351 2350 2352 2361 2358 2350 2358 2347 2351 2350 2357 2341 2350 2342 2342 2335 2343 2343 2357 2341 2343 2343 2349 2342 2340 2337 2339 2339 2341 2333 2338 2332 2341 2340 2338 2329 2342 2343 2335 2341 2334 2336 2337 2334 2329 2340 2328 2337 2343 2335 2346 2337 2333 2336 2339 2335 2328 2326 2341 2334 2335 2336 2331 2338 2325 2334 2331 2340 2328 2341 2335 2344 2326 2317 2325 2324 2321 2344 2333 2330 2304
2442 2455 2436 2420 2407 2392 2401 2400 2415 2394 2416 2390 2389 2389 2376 2381 2388 2392 2388 2381 2385 2388 2385 2382 2385 2381 2370 2376 2386 2370 2364 2377 2363 2364 2364 2353 2365 2356 2358 2351 2365 2357 2355 2354 2359 2356 2355 2345 2351 2349 2353 2361 2355 2350 2350 2354 2343 2342 2339 2354 2347 2344 2351 2348 2344 2350 2346 2341 2343 2336 2354 2345 2338 2351 2347 2347 2335 2352 2346 2346 2358 2349 2338 2343 2341 2346 2346 2341 2340 2335 2338 2343 2340 2356 2338 2347 2337 2336 2338 2341 2340 2345 2351 2341 2345 2348 2346 2326 2338 2340 2333 2339 2330 2349 2319 2308 2371 2383 2369 2314
2450 2422 2450 2450 2396 2399 2386 2400 2382 2391 2389 2386 2390 2379 2379 2385 2378 2377 2378 2381 2396 2376 2384 2388 2372 2371 2378 2371 2373 2359 2371 2364 2367 2361 2355 2358 2352 2361 2352 2357 2354 2356 2354 2351 2363 2358 2354 2353 2347 2348 2349 2353 2353 2348 2355 2346 2354 2361 2358 2339 2351 2346 2351 2344 2345 2344 2347 2341 2342 2351 2348 2343 2342 2344 2351 2351 2344 2349 2343 2348 2344 2346 2343 2339 2336 2353 2348 2352 2347 2345 2342 2336 2351 2336 2353 2351 2349 2352 2341 2342 2336 2350 2352 2354 2342 2348 2346 2347 2348 2362 2349 2346 2347 2350 2340 2342 2363 2314 2409 2392
2399 2405 2409 2404 2406 2394 2385 2385 2392 2385 2375 2386 2379 2381 2374 2384 2365 2370 2370 2382 2375 2362 2364 2369 2375 2368 2366 2366 2368 2359 2366 2364 2367 2353 2358 2352 2353 2357 2350 2349 2347 2354 2352 2350 2351 2346 2350 2349 2356 2345 2349 2350 2352 2350 2344 2341 2341 2343 2352 2340 2344 2340 2334 2345 2339 2344 2333 2335 2338 2338 2336 2338 2338 2337 2350 2341 2340 2335 2332 2348 2336 2333 2340 2345 2329 2338 2334 2339 2335 2330 2326 2335 2340 2330 2328 2337 2341 2325 2329 2328 2337 2326 2331 2328 2331 2331 2339 2333 2325 2332 2305 2322 2338 2337 2311 2324 2288 2355 2331 2301
2412 2427 2433 2418 2421 2394 2400 2405 2393 2399 2394 2384 2390 2392 2387 2394 2391 2387 2379 2370 2377 2379 2394 2382 2374 2373 2370 2370 2372 2376 2370 2368 2371 2359 2361 2364 2363 2372 2363 2353 2366 2354 2354 2353 2356 2354 2357 2355 2365 2348 2358 2362 2350 2350 2359 2344 2353 2351 2347 2348 2346 2351 2353 2350 2346 2350 2356 2351 2351 2351 2347 2343 2346 2345 2344 2339 2331 2345 2345 2347 2356 2349 2347 2344 2347 2354 2346 2340 2344 2348 2345 2338 2348 2336 2344 2341 2336 2345 2340 2344 2352 2331 2338 2343 2336 2346 2351 2330 2338 2359 2349 2344 2349 2336 2344 2345 2343 2349 2334 2345
2433 2451 2410 2391 2403 2387 2395 2411 2379 2387 2400 2396 2384 2386 2383 2393 2384 2386 2381 2382 2377 2380 2366 2380 2362 2372 2372 2370 2372 2370 2363 2361 2360 2360 2360 2362 2355 2363 2367 2358 2356 2332 2355 2354 2351 2359 2359 2351 2360 2353 2351 2346 2360 2354 2350 2353 2352 2346 2341 2348 2351 2349 2346 2339 2350 2343 2338 2343 2350 2344 2347 2349 2353 2350 2349 2345 2350 2338 2344 2348 2353 2346 2343 2342 2345 2340 2343 2342 2333 2341 2342 2343 2339 2341 2345 2348 2349 2336 2342 2332 2346 2336 2350 2345 2336 2346 2331 2344 2339 2335 2353 2351 2335 2350 2358 2334 2376 2348 2332 2350
2412 2408 2421 2391 2393 2399 2398 2391 2385 2366 2370 2390 2397 2383 2381 2375 2384 2369 2376 2377 2383 2371 2399 2364 2379 2370 2367 2377 2362 2368 2361 2373 2363 2358 2358 2361 2352 2358 2354 2349 2351 2338 2355 2354 2353 2353 2353 2349 2349 2353 2349 2351 2353 2350 2346 2348 2343 2339 2342 2345 2342 2342 2334 2346 2343 2338 2343 2349 2340 2345 2343 2342 2339 2354 2343 2347 2337 2346 2337 2343 2352 2343 2348 2348 2349 2345 2336 2338 2346 2339 2338 2333 2347 2329 2333 2340 2341 2349 2342 2329 2349 2341 2340 2342 2333 2348 2336 2334 2341 2322 2332 2332 2336 2326 2337 2328 2356 2340 2338 2363
2421 2425 2429 2437 2414 2394 2396 2403 2393 2401 2407 2392 2391 2377 2383 2383 2405 2372 2377 2380 2382 2382 2381 2386 2363 2372 2360 2373 2372 2381 2372 2364 2375 2363 2361 2363 2358 2361 2361 2355 2367 2356 2355 2364 2360 2354 2347 2350 2358 2357 2354 2355 2360 2357 2356 2352 2350 2342 2355 2344 2348 2344 2354 2348 2350 2349 2348 2348 2354 2354 2350 2352 2343 2340 2351 2349 2344 2343 2345 2349 2352 2344 2358 2349 2335 2341 2347 2348 2341 2341 2353 2340 2344 2334 2350 2343 2339 2338 2341 2346 2349 2341 2323 2341 2344 2342 2339 2342 2333 2345 2352 2326 2345 2325 2337 2350 2327 2337 2358 2330
2446 2430 2422 2422 2404 2402 2410 2405 2388 2400 2390 2388 2400 2397 2391 2401 2401 2392 2374 2392 2391 2380 2388 2390 2378 2369 2373 2370 2380 2367 2373 2366 2366 2365 2365 2372 2359 2356 2361 2354 2356 2357 2358 2359 2359 2360 2356 2350 2353 2355 2356 2360 2346 2354 2341 2344 2352 2356 2358 2345 2352 2346 2338 2349 2346 2356 2347 2349 2341 2347 2344 2350 2347 2339 2342 2347 2347 2350 2343 2352 2353 2344 2347 2350 2360 2353 2346 2345 2355 2349 2338 2335 2346 2337 2347 2347 2351 2333 2343 2352 2353 2339 2335 2343 2346 2340 2339 2350 2351 2341 2350 2342 2347 2337 2352 2323 2376 2361 2338 2361
2427 2411 2424 2404 2409 2413 2410 2398 2416 2398 2407 2408 2381 2383 2376 2386 2387 2377 2372 2391 2387 2378 2392 2380 2389 2376 2371 2370 2371 2372 2365 2358 2367 2362 2348 2362 2356 2349 2353 2363 2361 2359 2357 2350 2354 2356 2356 2353 2347 2358 2349 2359 2359 2350 2360 2351 2350 2351 2349 2350 2346 2351 2344 2344 2347 2339 2349 2344 2347 2343 2353 2350 2344 2345 2343 2343 2346 2324 2353 2351 2354 2345 2346 2341 2344 2343 2349 2350 2345 2355 2341 2350 2346 2338 2345 2354 2346 2347 2342 2335 2327 2345 2351 2344 2340 2336 2344 2346 2349 2342 2342 2348 2340 2340 2339 2309 2370 2363 2357 2341
2435 2440 2411 2395 2392 2412 2408 2394 2410 2404 2392 2401 2401 2394 2386 2379 2393 2389 2377 2378 2376 2370 2376 2392 2373 2377 2366 2366 2369 2362 2374 2373 2367 2372 2359 2368 2353 2351 2353 2358 2361 2360 2362 2355 2359 2362 2355 2349 2362 2356 2349 2356 2357 2364 2354 2349 2344 2353 2347 2351 2351 2352 2353 2350 2352 2349 2348 2352 2347 2350 2344 2352 2353 2358 2352 2353 2349 2353 2350 2345 2360 2348 2343 2354 2351 2344 2344 2349 2344 2349 2341 2344 2339 2346 2345 2341 2343 2356 2338 2343 2346 2343 2347 2356 2342 2332 2350 2333 2343 2353 2329 2346 2346 2326 2359 2351 2349 2339 2368 2366
2502 2460 2432 2407 2408 2426 2417 2415 2419 2431 2391 2408 2406 2405 2395 2404 2387 2395 2391 2394 2393 2400 2405 2404 2378 2388 2379 2386 2375 2380 2374 2376 2378 2376 2375 2370 2368 2360 2366 2375 2367 2363 2358 2364 2366 2368 2358 2356 2360 2353 2358 2358 2357 2361 2364 2352 2353 2357 2355 2360 2354 2355 2356 2354 2360 2361 2347 2355 2362 2355 2353 2363 2353 2351 2357 2351 2351 2355 2353 2367 2364 2360 2344 2353 2363 2351 2355 2360 2346 2360 2358 2353 2352 2363 2357 2352 2357 2348 2350 2363 2339 2350 2354 2348 2346 2356 2357 2359 2369 2370 2372 2334 2366 2372 2345 2358 2367 2383 2392 2409
2451 2425 2413 2420 2430 2416 2399 2399 2404 2393 2391 2389 2385 2393 2385 2384 2380 2390 2387 2376 2384 2394 2397 2380 2373 2380 2376 2373 2370 2365 2364 2376 2364 2371 2374 2359 2363 2361 2357 2369 2362 2360 2358 2362 2356 2353 2353 2356 2360 2353 2357 2352 2355 2351 2351 2355 2350 2352 2353 2346 2349 2348 2351 2349 2353 2358 2350 2352 2355 2350 2350 2344 2344 2346 2343 2343 2355 2353 2347 2344 2351 2346 2350 2351 2348 2353 2354 2350 2347 2352 2354 2350 2355 2349 2343 2347 2348 2350 2336 2351 2342 2341 2352 2351 2337 2354 2350 2339 2363 2362 2346 2349 2348 2352 2344 2336 2332 2360 2318 2315
2425 2427 2427 2385 2435 2412 2393 2408 2400 2395 2400 2389 2385 2388 2387 2378 2388 2381 2386 2387 2389 2368 2392 2377 2380 2380 2376 2376 2366 2362 2375 2368 2376 2362 2364 2364 2366 2370 2365 2358 2352 2370 2358 2360 2356 2359 2358 2354 2355 2349 2350 2356 2359 2353 2346 2352 2361 2355 2349 2355 2351 2352 2349 2353 2343 2340 2346 2345 2347 2357 2354 2359 2343 2352 2350 2350 2347 2346 2342 2345 2358 2348 2343 2352 2347 2345 2343 2347 2341 2343 2359 2355 2345 2344 2344 2342 2346 2346 2351 2339 2346 2343 2341 2343 2351 2336 2353 2347 2330 2342 2337 2346 2344 2349 2346 2334 2332 2347 2333 2299
2464 2450 2460 2425 2425 2435 2421 2413 2413 2417 2417 2405 2416 2395 2394 2401 2399 2396 2388 2402 2389 2389 2402 2385 2367 2390 2379 2387 2375 2379 2384 2369 2372 2368 2375 2366 2376 2370 2371 2368 2368 2363 2360 2362 2362 2363 2359 2362 2358 2361 2360 2370 2362 2357 2362 2349 2359 2353 2353 2355 2360 2352 2356 2365 2356 2350 2352 2356 2353 2352 2357 2357 2353 2353 2353 2349 2356 2360 2353 2354 2361 2367 2355 2363 2344 2350 2357 2361 2353 2351 2349 2349 2348 2351 2358 2355 2354 2351 2354 2344 2356 2357 2363 2349 2343 2350 2342 2352 2347 2349 2369 2370 2359 2372 2371 2361 2362 2383 2385 2413
2475 2421 2441 2405 2406 2416 2402 2416 2418 2393 2394 2399 2398 2395 2388 2386 2381 2381 2383 2391 2381 2382 2377 2389 2388 2370 2378 2373 2384 2372 2371 2368 2367 2363 2375 2352 2352 2362 2365 2357 2361 2360 2358 2363 2352 2350 2359 2349 2354 2348 2358 2357 2353 2353 2352 2355 2355 2349 2345 2347 2346 2346 2351 2342 2344 2345 2343 2347 2349 2342 2341 2343 2353 2355 2347 2347 2342 2342 2353 2344 2358 2347 2356 2343 2346 2347 2353 2346 2344 2345 2341 2343 2342 2348 2356 2356 2347 2355 2335 2344 2349 2338 2346 2348 2350 2359 2338 2354 2371 2362 2338 2370 2362 2360 2340 2345 2338 2360 2352 2405
2429 2410 2419 2401 2418 2411 2409 2407 2407 2401 2400 2413 2398 2387 2390 2391 2393 2391 2400 2387 2383 2372 2389 2386 2371 2377 2375 2376 2372 2364 2376 2375 2370 2369 2369 2359 2378 2363 2366 2363 2364 2356 2368 2365 2361 2362 2365 2352 2366 2359 2350 2361 2355 2350 2358 2349 2353 2347 2355 2347 2355 2361 2352 2355 2356 2349 2360 2345 2360 2356 2359 2353 2354 2352 2341 2351 2349 2356 2355 2349 2340 2358 2346 2351 2345 2351 2355 2350 2353 2343 2352 2360 2351 2357 2364 2360 2356 2346 2336 2359 2348 2353 2335 2348 2343 2349 2367 2342 2367 2357 2349 2363 2345 2355 2362 2359 2341 2365 2379 2357
2439 2425 2426 2433 2432 2430 2417 2426 2418 2405 2417 2398 2391 2391 2394 2401 2401 2400 2392 2399 2380 2393 2385 2397 2401 2387 2391 2379 2378 2373 2375 2372 2376 2377 2369 2369 2364 2375 2366 2370 2366 2364 2356 2370 2359 2359 2365 2360 2361 2365 2352 2356 2366 2361 2354 2362 2360 2357 2361 2362 2357 2357 2356 2357 2367 2353 2354 2359 2353 2362 2353 2364 2354 2356 2353 2350 2352 2357 2358 2349 2371 2353 2358 2351 2343 2357 2363 2364 2355 2359 2342 2346 2357 2344 2362 2363 2349 2371 2358 2368 2365 2368 2354 2368 2360 2357 2349 2358 2357 2364 2361 2345 2388 2399 2373 2361 2353 2405 2381 2452
2457 2465 2460 2458 2467 2427 2436 2437 2422 2404 2420 2402 2411 2413 2409 2415 2407 2394 2405 2392 2393 2385 2395 2387 2383 2393 2375 2380 2377 2372 2388 2381 2372 2367 2363 2368 2359 2354 2355 2362 2362 2367 2362 2355 2367 2360 2357 2349 2363 2358 2350 2359 2358 2367 2356 2361 2355 2365 2353 2345 2353 2345 2350 2350 2362 2356 2351 2357 2354 2344 2347 2353 2351 2356 2347 2355 2350 2344 2355 2352 2354 2364 2348 2366 2369 2375 2357 2355 2372 2374 2375 2356 2366 2379 2386 2377 2375 2390 2373 2399 2396 2380 2388 2418 2381 2398 2402 2399 2396 2355 2368 2399 2464 2480 2428 2538 2424 0 0 0
2538 2522 2499 2486 2438 2439 2430 2421 2409 2441 2443 2419 2454 2436 2430 2418 2424 2404 2407 2450 2433 2396 2393 2378 2373 2382 2383 2371 2375 2366 2366 2371 2376 2357 2366 2369 2361 2367 2362 2359 2356 2374 2359 2367 2357 2354 2359 2357 2348 2355 2367 2352 2357 2350 2354 2352 2350 2359 2351 2353 2348 2351 2356 2348 2351 2353 2345 2350 2347 2351 2352 2347 2351 2346 2348 2350 2356 2349 2352 2349 2357 2357 2351 2342 2347 2350 2368 2362 2360 2361 2340 2351 2343 2337 2360 2363 2370 2356 2360 2356 2358 2343 2361 2364 2357 2367 2362 2361 2354 2339 2356 2358 2373 2342 2414 2331 2371 2310 2460 0
0 0 2880 2794 3009 3019 2814 2520 2457 2543 2597 2527 2506 2511 2500 2540 2468 2457 2487 2507 2460 2399 2398 2389 2390 2379 2381 2376 2379 2381 2377 2372 2372 2366 2361 2371 2363 2369 2368 2365 2365 2361 2359 2354 2361 2359 2365 2356 2354 2359 2352 2360 2355 2352 2350 2361 2360 2359 2357 2352 2344 2350 2358 2358 2354 2356 2353 2359 2346 2351 2361 2345 2346 2352 2361 2359 2353 2345 2358 2349 2361 2366 2373 2361 2392 2378 2377 2379 2380 2369 2407 2397 2395 2395 2388 2407 2389 2415 2411 2404 2437 2418 2397 2423 2427 2425 2433 2426 2423 2439 2435 2525 2468 2497 2517 2418 2502 2571 0 0
2581 2643 2543 2522 2503 2623 2572 2440 2451 2451 2487 2468 2445 2452 2452 2462 2460 2432 2436 2437 2413 2418 2408 2401 2381 2382 2377 2379 2377 2368 2370 2370 2364 2374 2351 2367 2366 2369 2370 2364 2363 2354 2363 2361 2358 2359 2354 2363 2352 2354 2349 2366 2363 2357 2363 2352 2350 2346 2348 2350 2352 2348 2347 2357 2352 2352 2345 2348 2343 2347 2350 2352 2342 2352 2349 2346 2344 2353 2346 2352 2352 2385 2404 2444 2439 2432 2401 2442 2468 2454 2434 2435 2451 2441 2455 2436 2456 2466 2455 2421 2462 2465 2442 2451 2448 2448 2452 2429 2426 2491 2465 2495 2435 2454 2447 2553 2492 2560 2466 2643
0 0 0 2660 2622 2706 2668 2557 2603 2548 2587 2589 2505 2528 2529 2537 2492 2481 2475 2489 2517 2485 2450 2383 2369 2369 2357 2360 2365 2367 2359 2365 2370 2356 2374 2353 2356 2354 2355 2361 2362 2360 2356 2354 2356 2346 2351 2360 2355 2338 2344 2358 2355 2348 2350 2353 2348 2359 2349 2340 2345 2349 2348 2346 2350 2348 2345 2352 2347 2343 2344 2344 2342 2346 2346 2353 2344 2336 2338 2340 2346 2420 2430 2431 2424 2431 2423 2441 2426 2442 2438 2430 2434 2416 2425 2422 2429 2429 2440 2437 2433 2432 2427 2418 2409 2423 2432 2433 2440 2411 2418 2418 2419 2425 2429 2406 2448 2438 2442 2418
2760 2834 2669 2551 2541 2664 2556 2526 2537 2549 2538 2526 2502 2506 2512 2513 2510 2492 2492 2489 2483 2480 2460 2398 2382 2384 2384 2379 2374 2373 2374 2367 2364 2375 2378 2367 2361 2367 2376 2366 2366 2364 2364 2372 2350 2364 2354 2346 2359 2362 2359 2360 2354 2351 2361 2358 2361 2347 2359 2363 2355 2358 2356 2361 2350 2347 2361 2352 2353 2352 2341 2350 2350 2358 2347 2352 2351 2351 2342 2348 2372 2430 2446 2446 2457 2452 2445 2447 2454 2446 2463 2437 2454 2453 2459 2453 2458 2440 2443 2450 2446 2441 2455 2445 2446 2426 2470 2441 2457 2464 2449 2535 2506 2465 2443 2509 2555 2520 2579 2574
2638 2812 2595 2545 2537 2549 2537 2525 2511 2535 2537 2495 2501 2530 2500 2507 2496 2494 2485 2477 2489 2501 2462 2393 2390 2383 2381 2378 2381 2369 2373 2361 2375 2367 2369 2358 2363 2365 2361 2358 2363 2363 2350 2363 2355 2360 2352 2353 2355 2355 2353 2361 2352 2355 2361 2354 2348 2351 2353 2347 2359 2349 2344 2354 2359 2351 2346 2352 2342 2346 2350 2352 2348 2359 2347 2362 2356 2353 2360 2354 2357 2396 2435 2439 2439 2423 2443 2431 2435 2430 2450 2441 2435 2433 2457 2452 2437 2449 2451 2428 2466 2432 2434 2424 2430 2431 2437 2433 2437 2458 2465 2457 2434 2459 2443 2467 2456 2459 2504 2541
2634 2738 2584 2534 2523 2525 2516 2519 2498 2478 2516 2464 2489 2492 2464 2491 2466 2469 2480 2472 2479 2472 2493 2398 2371 2376 2374 2369 2363 2365 2370 2367 2361 2362 2358 2370 2360 2358 2353 2361 2359 2354 2358 2357 2360 2359 2352 2352 2351 2352 2355 2356 2364 2352 2359 2351 2342 2341 2362 2346 2341 2346 2351 2348 2353 2352 2347 2349 2344 2350 2343 2347 2353 2349 2350 2353 2346 2342 2347 2352 2343 2409 2420 2436 2432 2439 2430 2436 2438 2428 2433 2425 2443 2444 2436 2422 2438 2436 2444 2449 2438 2438 2443 2433 2420 2425 2428 2429 2433 2436 2440 2462 2426 2453 2463 2371 2368 2433 2465 2405
2572 2654 2567 2536 2527 2599 2549 2504 2506 2537 2518 2500 2506 2496 2498 2489 2492 2493 2495 2475 2498 2489 2460 2409 2380 2383 2389 2375 2378 2379 2372 2365 2373 2368 2368 2365 2357 2361 2367 2363 2365 2365 2366 2350 2362 2361 2365 2357 2354 2369 2370 2363 2360 2362 2352 2354 2354 2357 2349 2350 2358 2357 2354 2349 2357 2352 2353 2355 2353 2350 2349 2355 2343 2349 2355 2354 2344 2345 2347 2360 2366 2436 2460 2450 2468 2451 2455 2446 2469 2457 2447 2466 2457 2466 2450 2470 2495 2468 2478 2429 2455 2469 2475 2456 2463 2466 2437 2430 2454 2546 2478 2453 2459 2493 2476 2556 2528 2439 0 0
2615 2869 2755 2647 2585 2594 2567 2564 2539 2584 2624 2552 2544 2542 2542 2522 2539 2525 2551 2505 2515 2486 2481 2395 2380 2382 2381 2374 2382 2375 2383 2366 2376 2373 2367 2376 2364 2363 2353 2357 2368 2363 2361 2352 2368 2373 2363 2357 2362 2359 2363 2363 2365 2368 2359 2359 2352 2351 2354 2353 2361 2358 2351 2357 2363 2354 2347 2350 2349 2356 2350 2346 2341 2351 2348 2348 2348 2354 2357 2357 2354 2387 2453 2467 2499 2422 2424 2454 2476 2443 2415 2523 2467 2493 2454 2451 2485 2460 2468 2493 2478 2522 2450 2477 2485 2478 2504 2453 2506 2492 2473 2519 2474 2606 2599 2505 2580 0 0 0
2939 3280 3050 2857 2716 2659 2727 2583 2654 2631 2653 2567 2547 2547 2550 2542 2542 2542 2505 2539 2491 2484 2423 2398 2374 2368 2380 2375 2372 2368 2377 2362 2374 2367 2357 2369 2359 2358 2361 2362 2353 2361 2361 2368 2363 2359 2360 2361 2351 2357 2356 2359 2357 2359 2349 2349 2349 2347 2346 2353 2347 2353 2348 2346 2357 2345 2340 2344 2350 2345 2347 2350 2342 2349 2349 2352 2346 2349 2353 2359 2350 2376 2415 2425 2426 2424 2439 2444 2468 2433 2417 2452 2440 2455 2447 2441 2443 2431 2447 2447 2470 2438 2441 2417 2424 2440 2429 2457 2437 2415 2434 2463 2439 2478 2446 2393 2416 2493 2559 2599
2929 3091 3130 2848 2700 2697 2720 2650 2593 2590 2662 2590 2534 2559 2587 2539 2531 2519 2505 2535 2536 2481 2487 2403 2393 2375 2377 2374 2370 2378 2383 2371 2373 2379 2362 2375 2361 2363 2373 2370 2356 2360 2364 2355 2358 2364 2358 2358 2363 2360 2359 2365 2361 2360 2366 2360 2358 2351 2353 2361 2362 2345 2354 2349 2353 2355 2349 2348 2346 2357 2353 2351 2344 2338 2357 2351 2359 2350 2351 2364 2360 2404 2436 2451 2444 2440 2446 2448 2452 2451 2445 2439 2445 2451 2449 2439 2431 2445 2464 2436 2453 2433 2453 2436 2444 2444 2432 2450 2453 2445 2444 2437 2425 2475 2461 2457 2433 2441 2496 2409
2601 2700 2678 2584 2561 2570 2571 2511 2531 2537 2542 2539 2539 2508 2545 2516 2501 2490 2503 2503 2496 2502 2471 2397 2384 2373 2375 2382 2369 2377 2374 2379 2371 2375 2371 2367 2365 2372 2362 2361 2373 2361 2362 2363 2363 2361 2369 2358 2361 2361 2356 2361 2364 2359 2356 2366 2360 2358 2365 2346 2360 2351 2358 2358 2357 2354 2351 2356 2356 2356 2353 2344 2351 2347 2355 2350 2350 2357 2360 2361 2369 2412 2437 2438 2458 2456 2452 2458 2444 2445 2458 2452 2439 2459 2442 2437 2452 2447 2462 2455 2445 2432 2466 2443 2451 2437 2448 2428 2451 2459 2454 2476 2423 2461 2467 2505 2521 2524 2622 0
2546 2672 2604 2574 2526 2552 2532 2510 2521 2520 2500 2510 2496 2516 2521 2498 2502 2500 2505 2476 2490 2473 2462 2397 2382 2375 2388 2373 2373 2377 2374 2364 2378 2368 2372 2363 2369 2368 2355 2361 2361 2353 2367 2362 2352 2363 2361 2363 2371 2368 2354 2355 2356 2357 2361 2356 2361 2353 2348 2355 2345 2353 2354 2357 2352 2348 2345 2354 2348 2351 2349 2348 2347 2350 2356 2356 2351 2352 2349 2351 2359 2383 2437 2416 2428 2439 2425 2437 2426 2438 2427 2433 2433 2443 2428 2436 2424 2430 2443 2455 2460 2439 2414 2438 2416 2443 2425 2431 2454 2448 2424 2461 2438 2444 2404 2448 2423 2438 2536 2612
2660 2735 2622 2550 2530 2558 2514 2524 2539 2515 2530 2521 2509 2536 2536 2494 2519 2494 2511 2481 2483 2484 2484 2409 2380 2387 2382 2382 2387 2380 2377 2369 2373 2368 2367 2361 2370 2369 2368 2364 2362 2374 2361 2363 2367 2362 2363 2354 2362 2362 2363 2357 2370 2351 2355 2348 2355 2356 2356 2357 2360 2353 2358 2350 2351 2357 2354 2356 2355 2354 2351 2356 2349 2351 2351 2357 2354 2350 2364 2360 2344 2394 2434 2457 2448 2447 2441 2450 2441 2440 2450 2449 2445 2446 2434 2452 2458 2452 2446 2445 2432 2433 2447 2440 2447 2440 2433 2472 2434 2445 2472 2459 2452 2451 2486 2475 2449 2488 2487 2694
2690 2873 2619 2603 2589 2606 2573 2551 2535 2530 2533 2531 2553 2526 2547 2526 2516 2534 2535 2504 2524 2505 2501 2418 2397 2386 2375 2394 2379 2386 2382 2381 2381 2378 2383 2372 2372 2377 2370 2379 2367 2366 2370 2366 2368 2368 2368 2362 2366 2363 2354 2359 2365 2372 2362 2365 2360 2357 2351 2360 2352 2360 2356 2357 2355 2361 2350 2356 2351 2371 2356 2356 2359 2354 2363 2369 2363 2360 2356 2346 2369 2427 2455 2458 2462 2474 2451 2475 2495 2476 2459 2516 2503 2467 2500 2475 2465 2483 2514 2486 2497 2491 2530 2494 2504 2513 2505 2506 2566 2510 2588 2554 2564 2646 2761 2794 2817 0 0 0
2845 2960 2883 2711 2671 2610 2595 2574 2603 2539 2516 2610 2545 2550 2625 2514 2529 2541 2487 2550 2513 2541 2461 2386 2382 2369 2370 2368 2389 2372 2374 2378 2369 2372 2367 2379 2371 2365 2366 2366 2363 2362 2372 2356 2362 2369 2364 2362 2363 2360 2355 2360 2363 2360 2360 2353 2355 2349 2355 2355 2359 2351 2348 2346 2346 2355 2348 2348 2354 2350 2344 2345 2357 2353 2353 2361 2355 2352 2347 2344 2363 2367 2426 2448 2445 2458 2424 2458 2477 2453 2464 2432 2468 2438 2414 2428 2479 2445 2466 2469 2463 2470 2492 2468 2437 2463 2472 2478 2460 2473 2496 2469 2557 2561 2493 2575 2656 0 0 0
0 0 3020 2973 2801 2759 2776 2716 2657 2576 2676 2593 2574 2613 2648 2591 2552 2566 2478 2496 2508 2466 2469 2390 2383 2366 2377 2396 2384 2374 2376 2372 2377 2374 2365 2365 2367 2367 2374 2364 2367 2375 2365 2362 2359 2366 2371 2360 2363 2359 2364 2365 2368 2363 2356 2354 2352 2354 2362 2350 2356 2352 2351 2362 2361 2352 2354 2356 2353 2356 2350 2356 2349 2355 2357 2354 2343 2350 2353 2356 2351 2389 2423 2450 2452 2438 2438 2440 2435 2438 2447 2456 2456 2450 2442 2436 2450 2460 2456 2449 2437 2443 2455 2434 2441 2438 2422 2469 2453 2459 2444 2440 2479 2449 2482 2444 2487 2454 2582 2408
3160 3082 2911 2715 2689 2731 2718 2644 2639 2646 2646 2576 2549 2589 2627 2563 2583 2506 2650 2523 2519 2543 2473 2406 2392 2382 2384 2389 2389 2390 2392 2374 2383 2382 2371 2382 2376 2369 2373 2372 2376 2373 2370 2371 2368 2375 2370 2371 2371 2363 2369 2366 2367 2368 2363 2361 2360 2356 2355 2361 2358 2358 2361 2358 2360 2362 2359 2355 2359 2361 2355 2359 2362 2365 2365 2352 2355 2360 2356 2358 2359 2406 2453 2465 2466 2453 2461 2455 2457 2448 2458 2466 2455 2460 2454 2452 2457 2467 2452 2455 2456 2465 2459 2457 2461 2458 2464 2459 2470 2449 2471 2463 2482 2483 2483 2474 2534 2508 2475 2541
2725 2712 2596 2535 2546 2552 2539 2553 2531 2536 2527 2525 2505 2516 2530 2493 2508 2490 2505 2486 2492 2486 2500 2400 2377 2382 2389 2387 2377 2373 2381 2374 2375 2374 2362 2376 2368 2375 2378 2370 2366 2362 2367 2368 2370 2364 2362 2361 2358 2358 2356 2361 2368 2358 2354 2353 2362 2352 2362 2358 2355 2348 2354 2353 2347 2350 2352 2351 2347 2359 2356 2350 2349 2352 2354 2351 2362 2352 2347 2353 2359 2416 2432 2449 2442 2450 2449 2440 2450 2442 2435 2443 2451 2439 2433 2440 2443 2440 2440 2447 2448 2452 2462 2426 2450 2451 2430 2502 2415 2478 2441 2432 2464 2519 2538 2460 2474 2528 2615 0
2658 2659 2547 2534 2553 2528 2536 2526 2521 2509 2533 2495 2500 2498 2505 2507 2491 2487 2504 2504 2495 2500 2483 2406 2381 2386 2383 2377 2380 2383 2380 2371 2371 2362 2377 2366 2373 2371 2369 2364 2370 2371 2370 2377 2366 2364 2371 2369 2368 2362 2360 2363 2367 2354 2362 2362 2355 2356 2355 2356 2359 2359 2354 2359 2363 2357 2351 2354 2357 2347 2342 2352 2353 2359 2351 2361 2355 2354 2358 2345 2360 2382 2430 2427 2422 2446 2413 2430 2412 2449 2423 2444 2451 2442 2435 2433 2454 2434 2460 2420 2454 2436 2451 2422 2451 2432 2450 2475 2465 2477 2439 2480 2453 2401 2468 2502 2448 2479 2466 2643
2582 2687 2631 2551 2555 2578 2564 2535 2528 2502 2561 2538 2532 2509 2507 2513 2509 2490 2514 2515 2494 2483 2504 2418 2408 2384 2375 2377 2390 2381 2375 2379 2380 2383 2372 2378 2374 2378 2374 2378 2374 2363 2368 2358 2371 2366 2361 2360 2366 2368 2361 2366 2364 2363 2361 2353 2365 2362 2358 2366 2355 2362 2356 2354 2362 2363 2347 2352 2357 2358 2355 2358 2350 2352 2352 2354 2361 2355 2360 2347 2364 2399 2456 2448 2448 2445 2451 2445 2461 2437 2444 2446 2452 2449 2467 2458 2453 2447 2458 2442 2459 2451 2456 2457 2449 2444 2453 2467 2437 2441 2475 2497 2467 2489 2447 2544 2544 2508 2455 0
2627 2660 2595 2532 2560 2561 2553 2539 2520 2528 2568 2536 2518 2509 2552 2513 2521 2500 2543 2500 2501 2499 2498 2401 2384 2397 2391 2391 2377 2381 2385 2383 2371 2375 2380 2376 2377 2378 2368 2377 2374 2370 2363 2357 2367 2359 2364 2368 2367 2364 2359 2365 2376 2359 2363 2355 2357 2361 2357 2353 2354 2360 2356 2357 2360 2363 2359 2366 2350 2357 2358 2357 2354 2357 2354 2364 2356 2359 2354 2366 2360 2397 2460 2466 2475 2458 2439 2478 2474 2474 2472 2470 2461 2458 2476 2474 2488 2480 2474 2520 2473 2480 2508 2471 2506 2513 2482 2470 2481 2648 2565 2495 2692 2666 2690 0 0 0 0 0
2723 2760 2757 2645 2653 2603 2663 2577 2546 2579 2622 2591 2549 2586 2617 2529 2546 2540 2547 2508 2517 2554 2501 2391 2380 2379 2399 2379 2383 2388 2381 2376 2377 2382 2370 2376 2383 2363 2373 2375 2364 2375 2361 2366 2365 2358 2368 2359 2357 2364 2365 2362 2363 2361 2359 2353 2343 2351 2359 2349 2356 2360 2355 2349 2355 2355 2350 2356 2357 2356 2352 2361 2362 2354 2355 2357 2357 2351 2354 2362 2355 2350 2428 2439 2461 2433 2467 2438 2426 2425 2464 2429 2480 2483 2477 2413 2520 2479 2480 2448 2505 2420 2409 2466 2443 2465 2462 2390 2480 2460 2547 2551 0 0 0 0 0 0 0 0
0 0 3229 2906 2853 2879 2891 2713 2811 2738 2781 2630 2672 2661 2753 2660 2609 2558 2703 2585 2563 2527 2522 2414 2391 2385 2397 2387 2395 2392 2392 2378 2385 2390 2385 2382 2376 2384 2386 2378 2372 2380 2368 2369 2367 2371 2377 2363 2366 2368 2366 2363 2368 2359 2363 2368 2362 2362 2359 2351 2357 2353 2348 2360 2367 2362 2366 2361 2359 2351 2362 2364 2358 2358 2357 2363 2366 2365 2367 2350 2365 2361 2391 2370 2382 2382 2373 2384 2386 2369 2392 2377 2397 2396 2386 2363 2408 2342 2396 2398 2356 2376 2382 2370 2388 2390 2387 2384 2356 2380 2395 2395 2376 2374 2392 2469 2411 2397 2433 0
0 2736 2811 2605 2654 2737 2601 2578 2557 2555 2519 2533 2504 2477 2499 2482 2452 2470 2446 2476 2419 2407 2454 2404 2391 2392 2383 2379 2391 2372 2391 2386 2376 2383 2379 2393 2375 2373 2378 2372 2385 2375 2381 2369 2370 2369 2365 2371 2375 2368 2368 2357 2378 2363 2371 2362 2357 2365 2366 2364 2355 2364 2359 2355 2363 2351 2353 2355 2352 2357 2351 2359 2355 2361 2359 2345 2359 2361 2354 2350 2363 2371 2367 2358 2375 2382 2369 2392 2411 2363 2404 2365 2402 2400 2386 2402 2374 2397 2426 2395 2425 2401 2398 2425 2394 2339 2430 2436 2377 2374 2364 2476 2421 2488 2441 2608 2466 2571 0 0
2699 2675 2634 2626 2689 2547 2571 2497 2452 2474 2467 2458 2524 2513 2505 2587 2503 2551 2462 2466 2555 2411 2402 2378 2372 2384 2388 2387 2387 2378 2380 2383 2375 2369 2372 2362 2368 2363 2367 2367 2377 2372 2373 2367 2357 2362 2352 2350 2359 2362 2356 2361 2352 2347 2358 2358 2355 2359 2360 2358 2355 2359 2352 2357 2353 2358 2352 2348 2364 2362 2358 2355 2354 2348 2349 2352 2348 2361 2350 2346 2350 2342 2346 2351 2343 2344 2362 2331 2321 2333 2337 2356 2340 2355 2347 2358 2352 2364 2336 2339 2333 2332 2340 2354 2346 2337 2356 2357 2324 2339 2355 2341 2354 2403 2312 2357 2350 2345 2303 2380
2758 2666 2575 2551 2514 2509 2539 2486 2473 2464 2445 2456 2494 2498 2464 2470 2466 2442 2455 2422 2459 2435 2413 2412 2393 2377 2393 2388 2388 2389 2394 2386 2378 2382 2375 2377 2375 2383 2384 2379 2381 2378 2379 2381 2377 2378 2370 2377 2376 2368 2372 2368 2371 2375 2366 2368 2372 2367 2358 2368 2360 2358 2366 2372 2364 2359 2363 2361 2361 2353 2339 2366 2365 2365 2362 2363 2369 2367 2365 2360 2378 2370 2364 2360 2370 2360 2371 2355 2365 2364 2366 2371 2386 2386 2378 2373 2359 2369 2366 2361 2355 2361 2377 2367 2369 2364 2359 2361 2373 2378 2348 2394 2378 2398 2396 2341 2377 2412 2367 2379
2597 2535 2479 2453 2445 2465 2450 2445 2437 2422 2431 2428 2440 2421 2423 2423 2426 2426 2429 2425 2410 2406 2398 2398 2395 2394 2404 2391 2388 2386 2386 2398 2391 2379 2385 2375 2377 2379 2376 2386 2383 2389 2371 2377 2372 2382 2374 2373 2368 2379 2373 2369 2364 2366 2358 2369 2371 2360 2362 2368 2362 2364 2358 2358 2369 2362 2363 2372 2359 2370 2362 2361 2365 2367 2366 2365 2366 2370 2362 2345 2372 2361 2359 2367 2366 2367 2360 2351 2378 2364 2366 2344 2356 2355 2367 2362 2362 2357 2350 2367 2363 2360 2368 2351 2361 2367 2364 2350 2367 2370 2356 2363 2369 2360 2391 2404 2396 2399 2418 2455
2480 2452 2453 2429 2434 2431 2427 2421 2405 2408 2412 2405 2393 2395 2384 2407 2403 2403 2397 2395 2405 2387 2384 2380 2398 2382 2387 2378 2389 2392 2384 2376 2374 2388 2379 2377 2373 2376 2377 2378 2374 2371 2364 2369 2375 2367 2365 2352 2365 2367 2363 2361 2363 2363 2357 2369 2353 2357 2366 2352 2357 2346 2361 2366 2361 2355 2350 2352 2352 2354 2351 2352 2362 2359 2358 2356 2359 2355 2357 2353 2367 2359 2356 2354 2358 2362 2345 2348 2360 2350 2356 2357 2346 2355 2337 2362 2348 2347 2337 2352 2359 2351 2350 2341 2348 2361 2344 2355 2359 2366 2337 2334 2353 2367 2328 2373 2359 2357 2397 2427
2497 2445 2444 2451 2416 2438 2418 2410 2441 2412 2410 2406 2404 2408 2411 2417 2402 2397 2410 2395 2397 2398 2411 2400 2400 2385 2395 2394 2386 2388 2389 2382 2381 2390 2388 2381 2375 2386 2378 2380 2372 2374 2376 2382 2384 2367 2367 2382 2366 2368 2370 2370 2378 2374 2360 2358 2366 2363 2368 2359 2370 2365 2360 2367 2365 2360 2367 2368 2358 2355 2364 2361 2364 2359 2355 2366 2359 2362 2365 2371 2375 2374 2362 2369 2370 2365 2350 2365 2362 2359 2349 2361 2350 2359 2369 2365 2356 2356 2357 2359 2358 2351 2364 2353 2340 2353 2368 2357 2368 2350 2371 2375 2373 2354 2391 2329 2381 2398 2371 2375
2472 2479 2467 2449 2435 2427 2418 2457 2425 2435 2420 2436 2418 2416 2414 2418 2408 2419 2402 2398 2406 2400 2404 2412 2416 2398 2403 2406 2383 2406 2396 2381 2390 2398 2386 2390 2375 2375 2377 2374 2378 2371 2377 2362 2370 2382 2381 2366 2364 2382 2365 2373 2377 2371 2365 2366 2364 2364 2374 2367 2365 2362 2379 2368 2369 2372 2357 2376 2369 2368 2361 2360 2359 2365 2372 2363 2362 2362 2363 2372 2364 2369 2360 2360 2347 2357 2361 2358 2356 2357 2362 2357 2356 2367 2367 2377 2362 2359 2363 2362 2359 2362 2352 2375 2374 2364 2356 2363 2365 2351 2378 2361 2381 2366 2384 2386 2389 2435 2447 2482
2460 2478 2441 2412 2414 2429 2424 2415 2443 2407 2417 2407 2410 2423 2399 2412 2393 2398 2397 2409 2393 2409 2398 2386 2390 2397 2388 2384 2382 2385 2387 2379 2387 2382 2376 2382 2368 2384 2379 2380 2369 2366 2363 2374 2371 2355 2360 2363 2368 2376 2366 2361 2370 2363 2350 2358 2355 2371 2369 2367 2362 2348 2350 2361 2351 2367 2359 2367 2355 2351 2358 2352 2371 2367 2350 2355 2370 2360 2363 2352 2362 2368 2356 2350 2366 2354 2360 2368 2360 2364 2357 2361 2340 2356 2355 2345 2344 2364 2350 2363 2370 2358 2360 2357 2354 2357 2353 2349 2356 2347 2335 2365 2359 2380 2372 2412 2462 2478 2422 2540
2504 2494 2467 2444 2438 2414 2429 2419 2429 2409 2412 2402 2394 2419 2402 2405 2405 2412 2413 2397 2404 2405 2391 2416 2393 2391 2396 2394 2382 2398 2391 2402 2386 2384 2405 2379 2387 2381 2389 2378 2365 2381 2388 2374 2369 2359 2365 2381 2371 2371 2378 2367 2398 2364 2373 2358 2367 2356 2365 2367 2370 2361 2352 2365 2354 2364 2365 2361 2353 2362 2366 2354 2365 2354 2363 2368 2365 2377 2365 2358 2369 2347 2359 2361 2347 2375 2348 2370 2369 2331 2348 2373 2368 2352 2350 2351 2364 2357 2396 2359 2358 2348 2344 2350 2346 2348 2358 2346 2350 2350 2358 2347 2354 2365 2391 2390 2361 2409 2400 2475
2630 2485 2492 2462 2441 2470 2468 2417 2452 2452 2441 2424 2446 2437 2427 2408 2416 2411 2422 2396 2399 2405 2418 2428 2417 2396 2386 2384 2403 2384 2396 2400 2381 2395 2388 2396 2392 2385 2385 2377 2395 2375 2372 2389 2377 2377 2370 2377 2384 2378 2370 2365 2384 2378 2373 2379 2354 2370 2381 2371 2386 2383 2363 2358 2376 2380 2362 2364 2381 2350 2368 2371 2367 2363 2364 2368 2372 2367 2361 2361 2369 2366 2358 2377 2378 2359 2351 2360 2355 2363 2369 2346 2368 2371 2365 2368 2360 2374 2369 2375 2379 2358 2372 2364 2358 2369 2343 2365 2352 2403 2388 2393 2369 2371 2365 2457 2440 2410 2494 2627
2569 2584 2513 2447 2478 2443 2465 2430 2425 2423 2410 2427 2419 2398 2423 2412 2395 2424 2403 2408 2404 2409 2411 2387 2405 2389 2399 2394 2388 2365 2378 2365 2363 2389 2372 2395 2376 2380 2389 2369 2385 2368 2375 2375 2375 2373 2371 2373 2389 2377 2377 2375 2353 2364 2364 2367 2365 2357 2372 2375 2370 2363 2360 2363 2355 2353 2366 2365 2370 2355 2357 2347 2348 2356 2360 2362 2362 2356 2355 2361 2371 2374 2349 2371 2365 2360 2363 2359 2375 2356 2341 2355 2345 2358 2371 2353 2359 2345 2356 2342 2349 2355 2364 2356 2369 2346 2335 2353 2342 2363 2361 2355 2364 2366 2366 2362 2388 2413 2484 2630
2512 2527 2507 2450 2432 2433 2441 2429 2419 2438 2441 2405 2421 2421 2407 2395 2390 2371 2410 2403 2407 2406 2384 2398 2408 2397 2382 2383 2399 2383 2377 2391 2385 2387 2392 2388 2369 2369 2364 2379 2388 2370 2353 2359 2376 2378 2352 2370 2355 2370 2370 2377 2377 2392 2370 2380 2358 2356 2362 2359 2365 2371 2360 2352 2361 2366 2361 2353 2355 2353 2348 2369 2355 2347 2347 2349 2356 2357 2359 2371 2366 2363 2341 2358 2343 2365 2356 2341 2366 2340 2343 2336 2338 2344 2366 2350 2360 2357 2352 2358 2339 2347 2357 2345 2337 2343 2334 2337 2348 2354 2311 2314 2336 2370 2394 2387 2417 2469 2427 2439
2733 2623 2544 2503 2510 2548 2521 2505 2443 2439 2444 2490 2462 2488 2443 2430 2429 2436 2429 2459 2431 2419 2409 2443 2438 2443 2398 2397 2398 2403 2432 2408 2410 2402 2390 2417 2396 2414 2384 2408 2395 2389 2390 2398 2398 2389 2400 2380 2392 2377 2381 2389 2410 2391 2381 2402 2371 2392 2380 2383 2375 2377 2391 2371 2375 2378 2369 2375 2377 2358 2378 2371 2391 2372 2361 2370 2367 2386 2371 2387 2364 2373 2366 2376 2385 2377 2373 2392 2374 2378 2395 2370 2391 2385 2370 2364 2406 2389 2384 2378 2385 2389 2388 2361 2375 2383 2388 2376 2374 2426 2464 2373 2403 2459 2577 2495 2485 2615 2648 2541
2814 2572 2554 2516 2482 2457 2518 2545 2439 2430 2430 2424 2464 2417 2413 2438 2430 2417 2397 2433 2421 2403 2400 2424 2397 2417 2417 2399 2390 2402 2390 2381 2392 2377 2377 2384 2370 2379 2390 2384 2364 2377 2402 2370 2370 2382 2351 2382 2375 2381 2377 2374 2401 2357 2375 2368 2353 2372 2358 2360 2349 2366 2354 2368 2365 2370 2356 2357 2365 2366 2366 2360 2366 2352 2346 2365 2370 2360 2366 2373 2371 2376 2369 2363 2355 2364 2361 2355 2371 2369 2368 2374 2376 2369 2361 2377 2351 2369 2349 2358 2369 2366 2344 2365 2334 2355 2357 2399 2371 2407 2473 2388 2391 2463 2490 2456 2443 2521 2481 0
2907 2613 2579 2445 2537 2517 2565 2518 2455 2510 2411 2414 2428 2427 2452 2450 2402 2416 2406 2396 2407 2421 2393 2417 2404 2418 2408 2401 2383 2389 2375 2376 2390 2387 2360 2378 2373 2383 2386 2367 2369 2373 2372 2366 2367 2399 2384 2360 2377 2371 2383 2374 2354 2367 2370 2361 2368 2360 2382 2370 2352 2350 2374 2371 2350 2367 2368 2372 2359 2363 2367 2360 2357 2361 2381 2374 2360 2333 2345 2355 2386 2367 2355 2354 2336 2375 2344 2369 2358 2361 2370 2360 2366 2356 2362 2342 2363 2356 2334 2389 2356 2356 2351 2378 2353 2395 2360 2328 2359 2373 2411 2355 2380 2435 2420 2462 2645 2558 0 0
2941 2779 2612 2599 2566 2545 2544 2704 2526 2565 2448 2502 2507 2471 2473 2433 2419 2466 2426 2448 2423 2434 2448 2471 2457 2424 2395 2429 2420 2432 2400 2408 2445 2416 2407 2400 2397 2389 2389 2386 2388 2395 2370 2415 2411 2390 2377 2376 2384 2383 2383 2398 2380 2391 2402 2393 2392 2386 2375 2384 2374 2384 2379 2392 2385 2378 2377 2362 2365 2372 2384 2388 2386 2375 2384 2380 2386 2378 2381 2393 2391 2386 2397 2362 2414 2396 2392 2390 2360 2369 2385 2387 2389 2426 2363 2383 2367 2372 2379 2361 2373 2392 2386 2395 2373 2393 2385 2411 2412 2421 2378 2509 2504 2475 2554 2573 2734 2653 0 0
3449 3082 2902 2747 2648 2693 2554 2593 2607 2588 2480 2438 2433 2470 2497 2476 2445 2456 2443 2433 2376 2474 2420 2403 2436 2400 2371 2407 2357 2382 2397 2379 2391 2378 2414 2392 2386 2394 2372 2390 2392 2388 2388 2357 2384 2358 2378 2350 2357 2353 2358 2378 2359 2384 2355 2382 2341 2356 2353 2389 2369 2343 2360 2381 2347 2354 2374 2351 2343 2349 2362 2341 2350 2366 2336 2336 2353 2355 2371 2380 2351 2373 2375 2352 2374 2377 2347 2370 2372 2344 2366 2372 2372 2391 2343 2359 2374 2357 2382 2378 2388 2364 2355 2344 2400 2401 2360 2412 2365 2438 2526 2429 2520 2536 2703 0 0 0 0 0
3703 0 2984 2828 2765 2856 2797 2838 2574 2655 2527 2517 2438 2446 2491 2463 2457 2450 2401 2405 2450 2498 2408 2402 2464 2387 2434 2445 2427 2415 2441 2405 2382 2367 2404 2371 2382 2386 2380 2371 2394 2396 2360 2392 2372 2386 2371 2347 2358 2354 2376 2377 2375 2377 2347 2389 2371 2361 2339 2358 2349 2374 2376 2364 2356 2359 2357 2348 2367 2314 2388 2357 2366 2364 2402 2337 2343 2379 2367 2357 2336 2375 2350 2341 2359 2396 2337 2385 2378 2365 2354 2370 2392 2383 2381 2356 2378 2370 2401 2358 2380 2378 2394 2331 2392 2369 2372 2396 2473 2426 2525 2409 2600 2478 2590 2781 0 0 0 0
3949 0 3242 0 2963 0 0 0 0 2767 2547 2553 2490 2652 2558 2460 2528 2406 2452 2424 2443 2469 2461 2461 2438 2416 2452 2456 2367 2415 2406 2469 2464 2463 2442 2419 2382 2394 2402 2360 2391 2383 2412 2394 2397 2395 2377 2403 2390 2368 2390 2363 2415 2405 2335 2361 2372 2389 2388 2367 2350 2340 2364 2374 2350 2355 2367 2343 2354 2383 2363 2357 2355 2363 2373 2352 2378 2363 2406 2344 2416 2390 2367 2415 2370 2391 2393 2395 2356 2375 2401 2379 2371 2355 2382 2361 2352 2372 2429 2354 2373 2377 2419 2432 2388 2402 2373 2396 2425 2550 2520 2570 2435 2507 0 0 0 0 0 0
4137 4114 0 0 0 0 0 0 0 0 0 2725 2676 2553 2757 2645 2638 2600 2477 2457 2465 2511 2561 2473 2481 2426 2393 2402 2435 2446 2484 2383 2412 2416 2376 2425 2394 2391 2420 2305 2420 2403 2403 2336 2432 2342 2401 2363 2369 2363 2377 2382 2423 2418 2377 2413 2426 2354 2383 2412 2400 2352 2361 2390 2333 2370 2377 2361 2357 2371 2379 2337 2337 2366 2397 2449 2366 2394 2397 2358 2404 2338 2391 2347 2443 2344 2403 2372 2326 2376 2364 2345 2411 2366 2393 2329 2384 2426 2399 2406 2418 2434 2422 2371 2425 2476 2433 2446 2389 0 2588 2590 2520 0 0 0 0 0 0 0
4195 4116 0 0 0 0 0 0 0 0 0 0 0 0 0 0 2456 2494 2505 2487 2401 2384 2448 2482 0 2287 2381 2427 2257 2396 2406 2411 2358 2403 2350 2425 2425 2377 2342 2336 2364 2373 2329 2347 2388 2298 2360 2362 2282 2396 2299 2348 2330 2318 2316 2359 2306 2267 2357 2356 2290 2351 2282 2281 2318 2266 2265 2326 2285 2328 2301 2288 2337 2339 2265 2310 2367 2258 2304 2265 2334 2358 2364 2351 2333 2334 2357 2309 2360 2300 2344 2306 2327 2362 2385 2370 2337 2357 2420 2377 2414 2359 2378 2248 2404 2349 2407 2429 2338 0 2506 2485 0 0 0 0 0 0 0 0
