0 0 0 2568 2700 0 2730 0 0 0 0 2653 2451 2595 2424 2468 2436 2475 2438 2421 2466 2421 2372 2457 2559 2424 2418 2463 2375 2518 2427 2383 2346 2433 2386 2377 2404 2355 2370 2355 0 2606 2473 2408 2472 0 2430 2322 2360 2371 2331 2326 2290 2353 2375 2339 2357 2306 2329 2328 2326 2399 2371 2279 2330 2362 2351 2379 2361 2354 2326 2379 2328 2288 2302 2346 2344 2364 2322 2348 2351 2348 2310 2379 2379 2363 2333 2376 2298 2354 2376 2376 2296 2361 2307 2334 2313 2250 2337 2337 2385 0 2397 2298 2359 2331 2323 2391 2390 2323 2468 0 0 0 0 0 0 0 0 0
0 0 2894 2652 2873 2953 2735 0 2655 2602 2817 2592 2578 2564 2496 2428 2516 2524 2461 2490 2445 2397 2415 2439 2413 2396 2448 2424 2421 2456 2384 2395 2397 2387 2368 2384 2417 2367 2331 2368 2557 0 0 2517 0 0 2351 2370 2374 2347 2374 2364 2381 2318 2342 2360 2337 2375 2405 2340 2353 2353 2357 2371 2395 2331 2413 2386 2345 2343 2362 2376 2345 2348 2360 2376 2372 2356 2414 2349 2385 2374 2397 2436 2391 2368 2339 2357 2356 2370 2413 2360 2401 2346 2402 2385 2408 2434 2423 2388 2362 2381 2380 2350 2380 2418 2341 2355 2354 2447 2497 2493 0 0 0 0 0 0 0 0
0 0 2679 2649 2695 2690 2661 2479 2406 2522 2467 2432 2527 2512 2418 2443 2429 2447 2443 2381 2414 2442 2402 2316 2390 2393 2425 2389 2352 2420 2361 2371 2401 2458 2344 2341 2353 2345 2366 2373 2340 0 0 2384 2444 2360 2320 2364 2351 2321 2366 2361 2364 2340 2354 2321 2361 2362 2314 2341 2334 2313 2341 2354 2330 2328 2330 2345 2348 2329 2336 2345 2348 2362 2342 2323 2365 2331 2324 2363 2354 2362 2334 2324 2344 2351 2370 2339 2336 2341 2322 2378 2372 2332 2375 2296 2366 2355 2318 2376 2349 2348 2367 2390 2373 2354 2366 2345 2369 2397 2362 2396 2432 0 0 0 0 0 0 0
0 2902 2787 2763 2616 2520 2466 2563 2451 2421 2461 2486 2459 2403 2472 2425 2404 2419 2373 2411 2398 2389 2371 2385 2399 2383 2383 2355 2414 2375 2387 2391 2348 2352 2379 2337 2370 2338 2322 2357 2336 2378 2332 2366 2350 2321 2336 2330 2370 2354 2335 2353 2342 2333 2319 2361 2365 2366 2349 2326 2370 2347 2339 2343 2305 2356 2355 2350 2346 2335 2334 2345 2328 2310 2334 2354 2332 2359 2314 2341 2325 2339 2311 2348 2367 2357 2360 2337 2333 2366 2346 2340 2342 2332 2320 2328 2346 2371 2340 2377 2359 2364 2354 2314 2363 2365 2354 2343 2301 2391 2393 2295 2340 2402 0 0 0 0 0 0
2983 0 2890 2644 2538 2524 2605 2455 2495 2479 2462 2476 2411 2479 2434 2462 2425 2399 2396 2457 2429 2403 2418 2406 2391 2402 2393 2409 2419 2384 2395 2403 2365 2352 2372 2367 2358 2407 2358 2360 2347 2362 2368 2371 2379 2366 2355 2355 2360 2383 2353 2360 2351 2350 2359 2361 2345 2388 2358 2357 2340 2337 2347 2327 2352 2347 2350 2342 2364 2351 2354 2380 2375 2346 2355 2357 2352 2378 2339 2350 2326 2369 2363 2383 2341 2332 2378 2387 2343 2360 2373 2386 2355 2347 2345 2349 2353 2368 2352 2351 2352 2336 2360 2349 2394 2392 2363 2387 2323 2330 2344 2392 2327 2338 2586 0 0 0 0 0
2889 2855 2512 2531 2442 2464 2442 2451 2420 2409 2431 2421 2411 2372 2402 2430 2372 2412 2379 2374 2365 2375 2363 2378 2397 2348 2362 2359 2392 2340 2370 2349 2370 2316 2373 2356 2346 2353 2355 2330 2352 2334 2343 2357 2328 2336 2351 2355 2348 2342 2348 2338 2341 2366 2348 2311 2332 2337 2334 2333 2318 2362 2330 2315 2316 2337 2333 2325 2322 2328 2315 2329 2335 2366 2343 2330 2332 2348 2339 2330 2344 2346 2353 2342 2343 2301 2331 2344 2342 2343 2332 2354 2345 2354 2358 2319 2320 2306 2336 2346 2329 2371 2312 2396 2356 2323 2329 2343 2353 2322 2369 2277 2344 2266 2391 0 0 0 0 0
2817 2628 2453 2466 2465 2443 2456 2420 2408 2389 2378 2395 2407 2373 2377 2397 2409 2398 2386 2394 2389 2380 2373 2381 2402 2360 2393 2366 2392 2384 2367 2374 2360 2349 2368 2351 2366 2381 2356 2338 2357 2364 2357 2347 2334 2330 2346 2342 2356 2344 2324 2331 2353 2355 2339 2349 2345 2350 2323 2321 2331 2317 2351 2338 2339 2333 2348 2348 2335 2328 2341 2313 2333 2338 2323 2340 2335 2364 2341 2340 2330 2360 2337 2338 2351 2358 2354 2359 2329 2350 2323 2345 2341 2346 2346 2353 2329 2342 2367 2327 2325 2345 2331 2344 2351 2352 2328 2356 2341 2384 2343 2389 2326 2341 2399 2391 2339 0 0 0
2748 2744 2592 2545 2451 2467 2433 2456 2426 2428 2435 2416 2451 2439 2461 2401 2436 2413 2408 2403 2402 2411 2389 2422 2424 2403 2399 2383 2398 2376 2385 2355 2421 2394 2397 2376 2379 2386 2379 2357 2374 2394 2378 2384 2371 2362 2361 2357 2368 2356 2362 2370 2374 2353 2361 2360 2399 2356 2373 2363 2372 2362 2366 2375 2348 2383 2364 2353 2356 2367 2346 2350 2349 2361 2344 2361 2373 2351 2338 2395 2364 2377 2373 2351 2365 2381 2398 2392 2361 2356 2353 2375 2362 2358 2346 2355 2361 2355 2379 2358 2360 2346 2341 2396 2411 2363 2360 2359 2397 2390 2362 2397 2372 2398 2368 2496 2508 2551 0 0
2764 2645 2484 2423 2425 2406 2400 2421 2434 2410 2383 2402 2419 2417 2418 2395 2381 2374 2405 2373 2374 2414 2380 2393 2364 2389 2362 2361 2379 2378 2334 2370 2388 2341 2339 2359 2363 2351 2359 2347 2365 2347 2356 2359 2355 2363 2340 2354 2343 2366 2360 2352 2351 2342 2350 2366 2334 2363 2365 2352 2371 2330 2366 2349 2349 2344 2345 2340 2331 2332 2339 2340 2328 2352 2353 2342 2347 2337 2337 2327 2355 2349 2333 2365 2346 2350 2348 2370 2344 2363 2337 2355 2346 2344 2340 2337 2353 2334 2345 2351 2362 2356 2341 2348 2342 2334 2327 2326 2358 2355 2361 2411 2357 2444 2407 2417 2468 2511 2495 0
2686 2555 2459 2422 2421 2436 2404 2421 2407 2417 2422 2405 2401 2393 2382 2388 2408 2407 2378 2399 2386 2388 2408 2382 2375 2373 2379 2397 2376 2363 2367 2382 2372 2375 2364 2371 2360 2366 2364 2344 2367 2340 2367 2355 2351 2364 2358 2349 2337 2350 2350 2355 2344 2363 2358 2360 2357 2362 2352 2343 2362 2342 2355 2346 2354 2352 2345 2363 2337 2347 2356 2364 2354 2334 2351 2350 2341 2338 2359 2374 2353 2336 2348 2345 2340 2341 2371 2352 2354 2341 2362 2354 2347 2350 2358 2337 2342 2348 2346 2349 2347 2359 2330 2352 2354 2369 2349 2322 2337 2351 2386 2373 2349 2376 2396 2404 2368 2368 2477 2392
2542 2528 2489 2446 2431 2462 2411 2406 2402 2415 2430 2399 2386 2372 2389 2398 2399 2396 2370 2399 2381 2395 2384 2373 2375 2390 2384 2381 2378 2386 2374 2377 2363 2378 2373 2372 2390 2367 2369 2352 2361 2372 2336 2355 2343 2341 2341 2354 2352 2360 2343 2362 2353 2361 2344 2355 2364 2345 2346 2362 2344 2342 2340 2347 2360 2345 2348 2352 2354 2345 2358 2358 2353 2354 2349 2339 2345 2356 2343 2351 2347 2343 2361 2363 2346 2349 2359 2348 2341 2360 2349 2344 2349 2353 2354 2362 2342 2336 2349 2336 2347 2351 2347 2351 2345 2330 2336 2353 2354 2357 2372 2375 2415 2341 2371 2399 2415 2429 2391 2443
2468 2453 2495 2429 2405 2426 2389 2403 2400 2400 2384 2434 2394 2398 2407 2377 2381 2371 2364 2382 2385 2364 2362 2390 2371 2375 2374 2368 2373 2361 2370 2356 2358 2352 2374 2355 2367 2361 2359 2351 2357 2352 2363 2348 2342 2355 2352 2346 2351 2346 2353 2359 2340 2353 2348 2349 2350 2353 2345 2344 2350 2348 2358 2357 2360 2342 2344 2337 2345 2350 2351 2342 2337 2345 2349 2344 2339 2340 2349 2321 2334 2343 2340 2326 2345 2349 2357 2356 2334 2340 2343 2345 2338 2351 2346 2325 2340 2347 2335 2335 2335 2318 2345 2323 2355 2350 2345 2350 2341 2343 2329 2347 2359 2363 2405 2370 2400 2412 2412 2575
2515 2469 2443 2440 2416 2394 2389 2378 2375 2379 2391 2387 2394 2400 2385 2384 2387 2374 2384 2377 2371 2382 2392 2374 2370 2373 2360 2370 2373 2378 2375 2379 2368 2362 2367 2355 2355 2356 2358 2363 2359 2359 2341 2356 2360 2360 2355 2351 2354 2353 2352 2344 2355 2343 2364 2351 2354 2357 2359 2353 2345 2345 2341 2355 2341 2348 2348 2342 2323 2342 2351 2351 2333 2341 2341 2347 2357 2360 2357 2344 2337 2343 2337 2350 2343 2343 2359 2340 2354 2358 2347 2342 2332 2355 2325 2337 2348 2341 2331 2343 2336 2343 2338 2347 2344 2338 2353 2353 2330 2361 2367 2348 2302 2342 2400 2385 2422 2422 2424 2433
2556 2468 2445 2413 2435 2404 2393 2395 2389 2420 2404 2391 2402 2388 2395 2379 2379 2386 2377 2373 2384 2377 2383 2379 2380 2359 2376 2384 2371 2373 2376 2364 2371 2354 2362 2362 2366 2362 2358 2362 2355 2355 2352 2350 2341 2352 2347 2344 2355 2349 2348 2362 2338 2352 2351 2343 2352 2341 2357 2352 2341 2353 2348 2347 2343 2341 2336 2346 2354 2340 2343 2337 2341 2339 2337 2348 2338 2341 2340 2344 2344 2339 2339 2335 2348 2343 2348 2344 2347 2347 2347 2347 2331 2339 2351 2340 2352 2350 2338 2340 2349 2350 2349 2345 2351 2341 2355 2341 2351 2342 2330 2355 2332 2369 2359 2414 2363 2389 2341 2383
2512 2480 2429 2485 2417 2423 2426 2436 2426 2415 2411 2390 2397 2386 2383 2391 2379 2388 2385 2382 2377 2394 2376 2361 2385 2382 2371 2376 2372 2374 2376 2365 2369 2370 2376 2372 2378 2371 2370 2362 2371 2349 2361 2368 2361 2359 2367 2368 2346 2353 2366 2349 2356 2335 2349 2341 2344 2341 2351 2349 2357 2340 2351 2355 2337 2343 2350 2347 2357 2346 2344 2353 2352 2352 2342 2352 2351 2355 2349 2339 2359 2349 2349 2347 2346 2342 2338 2344 2332 2360 2353 2359 2347 2344 2346 2355 2351 2346 2351 2339 2341 2351 2365 2347 2352 2358 2347 2355 2362 2335 2342 2346 2345 2371 2340 2342 2373 2364 2391 2466
2411 2390 2414 2397 2397 2370 2406 2394 2369 2377 2397 2376 2372 2372 2369 2376 2376 2379 2375 2351 2360 2356 2375 2358 2371 2364 2359 2373 2350 2343 2367 2361 2372 2355 2354 2345 2346 2358 2353 2343 2361 2341 2348 2354 2352 2348 2355 2349 2339 2347 2350 2349 2348 2331 2358 2342 2337 2345 2336 2339 2348 2348 2345 2329 2345 2337 2342 2342 2334 2341 2344 2339 2343 2338 2338 2338 2336 2332 2341 2325 2342 2342 2344 2331 2323 2338 2350 2330 2334 2341 2344 2329 2340 2337 2336 2328 2347 2329 2349 2335 2335 2333 2332 2329 2331 2337 2343 2338 2349 2308 2337 2323 2333 2328 2329 2337 2340 2328 2345 2400
2470 2401 2411 2429 2427 2418 2393 2376 2380 2399 2379 2395 2377 2399 2400 2383 2385 2384 2371 2378 2374 2371 2390 2378 2371 2391 2367 2378 2369 2378 2369 2366 2376 2366 2370 2365 2361 2354 2362 2353 2367 2353 2352 2353 2349 2343 2353 2362 2356 2357 2348 2356 2350 2352 2350 2355 2360 2349 2342 2347 2346 2352 2347 2350 2347 2342 2346 2348 2353 2343 2339 2347 2341 2342 2346 2341 2345 2349 2347 2341 2343 2338 2352 2334 2341 2346 2352 2341 2349 2339 2345 2350 2339 2344 2346 2327 2346 2341 2350 2347 2356 2346 2350 2346 2337 2333 2351 2366 2337 2342 2354 2353 2366 2337 2363 2340 2371 2301 2414 2405
2453 2406 2414 2443 2387 2391 2395 2394 2374 2380 2394 2373 2371 2382 2380 2387 2377 2367 2371 2388 2382 2373 2376 2376 2374 2371 2369 2367 2374 2360 2371 2362 2376 2369 2359 2357 2355 2350 2349 2353 2358 2357 2350 2364 2355 2350 2351 2347 2356 2343 2349 2357 2343 2336 2353 2349 2344 2358 2344 2351 2348 2349 2343 2337 2340 2340 2351 2342 2342 2343 2335 2349 2346 2337 2339 2341 2334 2343 2340 2337 2338 2345 2341 2341 2353 2356 2344 2338 2335 2332 2351 2341 2348 2339 2349 2348 2337 2340 2337 2332 2348 2334 2340 2338 2342 2345 2341 2336 2340 2332 2319 2338 2339 2342 2314 2356 2299 2390 2346 2365
2417 2400 2401 2404 2398 2392 2397 2363 2381 2378 2372 2363 2369 2377 2369 2355 2364 2359 2366 2383 2362 2374 2362 2361 2359 2355 2370 2360 2373 2358 2358 2352 2369 2357 2366 2358 2354 2352 2360 2354 2357 2347 2340 2348 2350 2342 2337 2346 2339 2343 2349 2342 2343 2338 2340 2341 2344 2340 2330 2332 2339 2347 2338 2336 2340 2341 2333 2335 2341 2336 2349 2329 2350 2352 2341 2333 2332 2344 2323 2338 2335 2352 2330 2339 2349 2334 2321 2336 2330 2341 2330 2347 2344 2327 2335 2340 2340 2332 2345 2337 2339 2351 2331 2348 2330 2326 2335 2328 2323 2343 2327 2342 2321 2311 2328 2400 2335 2332 2317 2364
2445 2425 2418 2432 2397 2403 2393 2387 2387 2378 2384 2401 2373 2381 2376 2391 2370 2372 2393 2386 2386 2373 2371 2363 2367 2365 2383 2370 2372 2379 2367 2366 2362 2374 2360 2369 2362 2359 2364 2356 2361 2367 2355 2363 2357 2344 2353 2363 2353 2349 2347 2355 2349 2352 2358 2352 2347 2344 2360 2339 2341 2342 2346 2349 2353 2337 2350 2349 2341 2343 2354 2346 2344 2344 2345 2341 2348 2347 2336 2345 2349 2346 2353 2358 2344 2338 2351 2342 2356 2351 2349 2344 2344 2349 2344 2343 2334 2352 2342 2337 2338 2339 2337 2347 2360 2342 2354 2338 2344 2333 2335 2331 2367 2366 2340 2329 2329 2341 2352 2336
2468 2431 2448 2399 2386 2406 2408 2387 2388 2384 2394 2395 2375 2374 2381 2367 2376 2384 2364 2366 2376 2369 2366 2364 2374 2368 2380 2381 2360 2380 2363 2362 2358 2365 2366 2361 2365 2369 2370 2360 2356 2360 2353 2351 2352 2345 2344 2357 2352 2348 2357 2346 2352 2350 2354 2350 2344 2350 2352 2350 2345 2338 2347 2351 2351 2348 2345 2348 2347 2346 2346 2336 2344 2343 2351 2344 2347 2349 2344 2344 2346 2339 2351 2337 2345 2346 2338 2344 2349 2342 2345 2339 2339 2343 2341 2347 2349 2344 2352 2343 2347 2334 2347 2343 2344 2333 2341 2337 2341 2334 2330 2345 2329 2348 2329 2329 2358 2348 2326 2317
2430 2425 2396 2367 2398 2383 2382 2377 2377 2384 2378 2385 2394 2389 2389 2373 2363 2363 2366 2371 2362 2364 2365 2381 2370 2364 2363 2361 2358 2360 2358 2354 2357 2355 2358 2362 2351 2356 2359 2349 2350 2343 2359 2356 2342 2343 2344 2348 2356 2339 2353 2347 2341 2354 2355 2349 2351 2351 2334 2341 2341 2335 2347 2342 2343 2353 2331 2342 2351 2338 2349 2342 2351 2335 2340 2343 2330 2343 2338 2344 2332 2341 2336 2334 2331 2342 2347 2346 2355 2351 2343 2342 2340 2336 2340 2340 2334 2338 2341 2340 2335 2335 2330 2335 2335 2341 2337 2345 2358 2345 2308 2327 2334 2319 2340 2316 2332 2397 2309 2307
2437 2435 2381 2385 2377 2386 2399 2385 2384 2396 2386 2385 2386 2374 2377 2374 2366 2377 2373 2365 2375 2362 2376 2381 2375 2359 2372 2378 2372 2376 2366 2367 2367 2360 2371 2359 2356 2352 2364 2352 2365 2354 2342 2354 2345 2354 2361 2350 2356 2347 2348 2347 2347 2348 2345 2337 2351 2346 2352 2339 2352 2343 2343 2347 2337 2349 2348 2343 2344 2341 2333 2354 2347 2347 2339 2351 2342 2342 2349 2355 2339 2343 2349 2340 2341 2337 2352 2343 2337 2332 2337 2348 2344 2339 2339 2343 2333 2334 2342 2336 2340 2344 2340 2335 2339 2345 2343 2340 2335 2332 2315 2340 2315 2326 2337 2368 2344 2391 2352 2321
2505 2440 2405 2411 2421 2405 2388 2389 2392 2397 2375 2382 2387 2368 2380 2382 2384 2378 2375 2377 2376 2384 2362 2378 2365 2376 2372 2364 2363 2358 2358 2366 2366 2364 2371 2364 2352 2353 2362 2351 2351 2358 2359 2355 2355 2337 2355 2348 2349 2349 2350 2350 2352 2347 2356 2358 2349 2355 2353 2350 2346 2355 2350 2355 2346 2345 2338 2345 2350 2353 2347 2352 2327 2356 2341 2344 2348 2350 2340 2339 2346 2339 2352 2350 2342 2348 2357 2345 2344 2346 2334 2344 2336 2349 2349 2348 2333 2345 2333 2350 2348 2339 2351 2347 2346 2339 2350 2343 2338 2352 2344 2349 2335 2372 2353 2417 2355 2355 2379 2453
2416 2388 2440 2396 2398 2394 2387 2379 2394 2369 2377 2391 2367 2381 2368 2385 2375 2381 2379 2368 2364 2364 2366 2369 2368 2364 2376 2359 2377 2371 2363 2365 2360 2371 2358 2352 2350 2354 2354 2352 2352 2348 2344 2352 2353 2351 2343 2350 2348 2346 2343 2342 2351 2343 2345 2346 2344 2340 2345 2341 2336 2342 2342 2346 2342 2335 2351 2342 2338 2339 2336 2335 2331 2341 2348 2335 2346 2342 2339 2339 2333 2342 2339 2338 2338 2335 2349 2352 2344 2352 2341 2334 2344 2326 2349 2332 2339 2344 2336 2336 2338 2340 2330 2325 2334 2329 2333 2343 2318 2334 2320 2330 2305 2330 2338 2317 2321 2308 2319 2351
2441 2386 2416 2414 2394 2395 2371 2372 2370 2394 2377 2382 2376 2377 2385 2387 2386 2372 2362 2376 2377 2372 2378 2376 2365 2364 2353 2363 2376 2366 2374 2373 2365 2359 2350 2359 2355 2358 2365 2357 2351 2348 2349 2349 2355 2356 2350 2352 2348 2346 2351 2355 2340 2353 2344 2347 2345 2351 2349 2346 2343 2357 2347 2355 2341 2340 2341 2342 2350 2338 2342 2299 2343 2340 2338 2348 2346 2344 2338 2341 2345 2344 2356 2350 2350 2337 2349 2337 2338 2339 2348 2350 2343 2347 2334 2332 2343 2333 2355 2349 2335 2340 2350 2332 2343 2330 2342 2337 2350 2338 2342 2351 2330 2330 2317 2307 2361 2351 2306 2364
2458 2471 2432 2436 2411 2406 2415 2392 2403 2390 2391 2397 2395 2386 2386 2391 2383 2373 2390 2371 2388 2374 2377 2376 2385 2374 2375 2377 2379 2374 2377 2369 2358 2376 2373 2366 2370 2358 2361 2354 2360 2357 2361 2354 2359 2359 2365 2351 2363 2352 2350 2357 2348 2344 2352 2350 2355 2356 2360 2352 2347 2340 2345 2346 2349 2345 2353 2350 2346 2345 2352 2337 2349 2352 2349 2343 2342 2346 2364 2349 2361 2344 2350 2348 2363 2353 2344 2348 2359 2352 2344 2344 2345 2341 2349 2337 2350 2344 2352 2343 2347 2349 2344 2344 2347 2343 2353 2340 2347 2349 2352 2338 2345 2359 2348 2388 2332 2389 2357 2403
2483 2425 2417 2422 2408 2391 2397 2386 2396 2384 2389 2386 2376 2378 2376 2373 2363 2368 2383 2371 2372 2381 2379 2388 2376 2380 2366 2364 2363 2365 2369 2362 2364 2365 2349 2356 2366 2348 2350 2349 2350 2353 2350 2359 2349 2347 2354 2349 2353 2348 2343 2348 2345 2344 2349 2341 2344 2341 2349 2345 2342 2350 2349 2336 2342 2345 2346 2335 2349 2336 2337 2345 2337 2344 2331 2338 2338 2337 2342 2335 2344 2343 2342 2336 2354 2355 2347 2338 2348 2340 2339 2343 2339 2342 2339 2342 2332 2336 2345 2340 2331 2323 2346 2333 2329 2335 2340 2351 2327 2350 2327 2327 2336 2343 2351 2331 2349 2359 2356 2382
2465 2410 2425 2397 2405 2398 2393 2392 2406 2394 2379 2394 2380 2383 2373 2378 2383 2370 2365 2370 2378 2386 2374 2373 2370 2368 2367 2373 2374 2369 2368 2354 2364 2368 2372 2361 2362 2355 2356 2357 2358 2345 2347 2348 2350 2350 2350 2351 2357 2357 2346 2352 2356 2358 2350 2352 2346 2344 2354 2344 2352 2350 2346 2337 2352 2343 2350 2345 2343 2352 2340 2338 2343 2342 2349 2337 2345 2349 2345 2352 2345 2347 2350 2345 2338 2351 2332 2339 2348 2349 2342 2345 2345 2346 2334 2347 2338 2350 2342 2357 2356 2335 2337 2352 2345 2341 2337 2344 2355 2355 2323 2339 2336 2343 2340 2347 2317 2349 2330 2348
2408 2418 2433 2445 2401 2408 2388 2403 2402 2409 2388 2377 2393 2387 2387 2383 2387 2383 2386 2384 2376 2380 2381 2378 2375 2376 2373 2376 2384 2375 2379 2370 2373 2367 2369 2359 2364 2360 2362 2361 2356 2366 2354 2357 2365 2358 2351 2355 2356 2351 2358 2354 2354 2352 2367 2355 2363 2353 2347 2354 2356 2352 2356 2345 2350 2350 2351 2346 2351 2352 2345 2348 2346 2343 2347 2343 2351 2346 2342 2345 2348 2352 2367 2346 2338 2350 2369 2363 2353 2347 2352 2347 2351 2361 2355 2343 2360 2348 2351 2364 2350 2338 2346 2346 2345 2360 2355 2347 2345 2373 2353 2361 2357 2361 2352 2367 2375 2392 2373 2430
2416 2436 2439 2422 2399 2405 2409 2391 2373 2388 2378 2383 2377 2390 2378 2384 2371 2383 2377 2374 2379 2366 2373 2361 2384 2377 2364 2366 2369 2378 2372 2374 2364 2359 2359 2353 2358 2361 2348 2351 2352 2352 2353 2356 2354 2358 2354 2356 2354 2347 2355 2350 2340 2345 2342 2346 2350 2346 2348 2341 2351 2347 2351 2352 2346 2345 2344 2354 2344 2335 2341 2340 2350 2334 2336 2343 2347 2342 2344 2344 2348 2345 2330 2347 2337 2365 2351 2343 2346 2348 2346 2340 2337 2340 2352 2346 2343 2341 2345 2346 2349 2349 2333 2336 2345 2336 2342 2339 2340 2329 2344 2356 2364 2329 2331 2337 2395 2340 2371 2360
2444 2438 2444 2402 2387 2401 2398 2399 2397 2394 2382 2391 2393 2375 2373 2389 2378 2382 2386 2383 2368 2375 2372 2388 2376 2373 2371 2371 2384 2370 2369 2365 2361 2355 2357 2365 2356 2355 2356 2357 2360 2349 2364 2351 2349 2355 2351 2352 2347 2352 2359 2350 2357 2356 2352 2356 2353 2350 2343 2346 2356 2355 2350 2343 2347 2346 2345 2347 2340 2346 2341 2346 2340 2351 2340 2341 2347 2342 2350 2344 2351 2344 2347 2345 2345 2344 2352 2344 2352 2348 2347 2344 2351 2347 2345 2354 2342 2343 2337 2346 2350 2342 2348 2341 2354 2346 2340 2338 2344 2337 2352 2349 2342 2360 2367 2355 2349 2365 2374 2408
2440 2456 2459 2390 2409 2397 2387 2393 2382 2388 2406 2368 2393 2385 2386 2397 2378 2373 2378 2378 2371 2375 2368 2372 2371 2376 2366 2365 2372 2363 2368 2378 2372 2367 2367 2365 2368 2366 2350 2355 2354 2363 2360 2364 2351 2360 2354 2352 2357 2361 2350 2354 2350 2365 2352 2356 2353 2357 2355 2349 2357 2350 2353 2356 2346 2346 2344 2352 2354 2348 2351 2341 2347 2351 2342 2340 2358 2346 2349 2342 2339 2345 2346 2352 2345 2352 2345 2337 2358 2351 2350 2349 2348 2340 2352 2351 2343 2352 2359 2351 2351 2340 2340 2346 2347 2349 2346 2347 2352 2340 2353 2340 2353 2352 2349 2373 2344 2363 2407 2392
2477 2434 2428 2419 2405 2402 2399 2406 2392 2394 2403 2406 2375 2381 2381 2384 2392 2375 2378 2382 2377 2374 2373 2364 2376 2363 2370 2375 2369 2373 2369 2361 2368 2360 2363 2369 2358 2356 2353 2356 2362 2352 2357 2356 2353 2350 2351 2351 2352 2356 2345 2355 2348 2355 2360 2348 2346 2365 2355 2348 2348 2355 2342 2344 2348 2335 2344 2338 2347 2348 2353 2350 2355 2340 2338 2344 2343 2352 2348 2337 2341 2340 2354 2346 2343 2345 2353 2345 2348 2349 2340 2344 2334 2341 2352 2345 2350 2351 2347 2348 2353 2355 2343 2356 2349 2350 2354 2334 2369 2352 2342 2346 2355 2342 2360 2370 2363 2385 2380 2390
2404 2407 2393 2409 2392 2398 2385 2390 2386 2399 2376 2370 2384 2388 2376 2387 2375 2361 2374 2382 2372 2366 2373 2373 2373 2376 2376 2369 2379 2362 2363 2352 2361 2361 2368 2359 2360 2355 2351 2357 2353 2352 2353 2360 2357 2343 2352 2358 2356 2363 2351 2346 2356 2350 2346 2350 2354 2360 2348 2342 2343 2348 2343 2351 2334 2345 2349 2344 2342 2347 2339 2344 2350 2342 2346 2336 2346 2341 2332 2343 2334 2339 2342 2338 2344 2356 2347 2347 2344 2350 2345 2348 2343 2342 2338 2351 2355 2345 2343 2350 2337 2332 2338 2337 2343 2334 2328 2335 2340 2340 2349 2345 2348 2331 2356 2350 2345 2353 2350 2333
2465 2429 2424 2412 2410 2393 2406 2393 2400 2403 2416 2376 2398 2383 2378 2398 2389 2373 2378 2378 2389 2368 2377 2383 2375 2377 2369 2372 2370 2388 2368 2371 2368 2369 2367 2367 2373 2351 2354 2369 2364 2354 2364 2357 2354 2361 2352 2353 2352 2362 2357 2358 2356 2356 2357 2359 2351 2350 2356 2358 2356 2348 2351 2352 2346 2342 2354 2352 2352 2346 2347 2356 2345 2347 2350 2352 2355 2348 2348 2353 2354 2351 2348 2349 2351 2355 2361 2340 2352 2346 2356 2349 2334 2343 2352 2346 2360 2351 2353 2353 2348 2350 2346 2349 2354 2352 2351 2338 2349 2354 2340 2354 2357 2344 2354 2359 2356 2368 2377 2362
2450 2428 2436 2396 2420 2418 2410 2398 2409 2402 2388 2379 2398 2397 2389 2387 2377 2384 2373 2380 2377 2374 2385 2368 2378 2372 2375 2369 2384 2368 2363 2360 2366 2363 2372 2362 2367 2354 2356 2349 2358 2353 2368 2364 2352 2351 2355 2348 2350 2347 2349 2355 2353 2351 2347 2345 2350 2352 2349 2350 2355 2354 2344 2350 2351 2350 2346 2345 2355 2343 2344 2343 2344 2339 2354 2345 2347 2344 2346 2344 2339 2354 2348 2352 2343 2352 2354 2352 2349 2349 2363 2345 2352 2339 2340 2346 2346 2352 2341 2341 2347 2356 2349 2347 2339 2353 2343 2339 2353 2346 2345 2351 2355 2354 2347 2357 2373 2394 2369 2377
2450 2426 2388 2381 2406 2386 2389 2390 2392 2397 2381 2388 2377 2375 2368 2375 2371 2364 2368 2377 2368 2375 2368 2365 2370 2363 2360 2369 2366 2372 2367 2368 2351 2359 2358 2353 2354 2352 2353 2356 2360 2351 2362 2350 2353 2351 2348 2344 2352 2355 2350 2340 2333 2341 2347 2346 2354 2358 2350 2350 2346 2345 2342 2348 2339 2342 2340 2345 2347 2353 2339 2344 2348 2344 2350 2339 2348 2343 2345 2342 2342 2336 2347 2353 2344 2336 2355 2339 2357 2341 2351 2335 2338 2345 2349 2344 2337 2347 2340 2328 2329 2321 2339 2341 2337 2338 2333 2330 2344 2331 2320 2325 2325 2340 2333 2336 2303 2362 2329 2278
2450 2421 2414 2426 2431 2407 2407 2398 2394 2393 2392 2380 2391 2393 2378 2391 2382 2369 2384 2376 2376 2364 2379 2371 2375 2377 2376 2363 2381 2366 2367 2373 2380 2362 2358 2366 2368 2363 2355 2358 2362 2358 2353 2358 2361 2358 2355 2350 2349 2351 2346 2351 2345 2350 2357 2343 2356 2353 2358 2347 2355 2346 2352 2346 2351 2347 2350 2353 2340 2340 2346 2345 2353 2343 2342 2354 2353 2347 2354 2347 2341 2343 2349 2352 2348 2348 2357 2347 2342 2348 2354 2352 2356 2349 2335 2354 2341 2347 2346 2350 2348 2347 2340 2343 2344 2335 2333 2341 2325 2347 2352 2346 2362 2347 2309 2349 2366 2396 2360 2363
2462 2413 2408 2403 2409 2397 2419 2407 2380 2389 2403 2396 2388 2379 2396 2379 2386 2377 2378 2380 2381 2385 2375 2370 2370 2376 2363 2378 2366 2371 2367 2371 2377 2358 2363 2360 2356 2360 2362 2353 2362 2359 2360 2365 2355 2357 2349 2350 2355 2345 2352 2350 2347 2351 2339 2356 2357 2356 2357 2346 2354 2340 2343 2354 2344 2353 2350 2345 2346 2349 2347 2352 2351 2353 2353 2351 2349 2356 2351 2346 2356 2348 2338 2352 2349 2350 2359 2365 2351 2344 2348 2353 2351 2358 2351 2349 2357 2344 2356 2355 2340 2340 2342 2353 2336 2347 2356 2349 2350 2340 2348 2355 2343 2358 2345 2338 2365 2339 2355 2332
2493 2411 2427 2377 2415 2406 2401 2385 2400 2390 2405 2390 2389 2369 2383 2382 2386 2377 2379 2379 2382 2373 2372 2379 2367 2365 2375 2373 2365 2376 2366 2366 2365 2353 2360 2361 2365 2356 2364 2356 2354 2354 2355 2362 2353 2352 2348 2350 2349 2352 2343 2349 2343 2348 2351 2353 2353 2356 2353 2335 2346 2345 2344 2351 2344 2347 2349 2345 2343 2342 2346 2340 2344 2347 2345 2351 2340 2346 2355 2345 2343 2335 2346 2348 2345 2350 2339 2351 2339 2351 2352 2340 2347 2341 2342 2359 2351 2332 2340 2348 2346 2329 2358 2345 2335 2353 2335 2346 2336 2361 2345 2336 2338 2329 2343 2338 2318 2352 2344 2309
2484 2435 2409 2400 2403 2400 2398 2427 2390 2396 2401 2398 2378 2392 2387 2385 2381 2385 2378 2385 2383 2378 2378 2383 2382 2381 2383 2371 2375 2387 2375 2380 2365 2366 2374 2355 2366 2356 2362 2369 2358 2367 2362 2363 2359 2356 2347 2364 2350 2358 2356 2345 2352 2356 2349 2357 2358 2355 2354 2354 2350 2352 2350 2340 2353 2346 2351 2355 2348 2358 2348 2354 2349 2355 2345 2351 2353 2351 2355 2348 2342 2352 2353 2348 2351 2349 2362 2352 2346 2335 2352 2351 2348 2354 2347 2360 2361 2343 2344 2356 2360 2344 2342 2354 2345 2345 2341 2353 2352 2357 2347 2345 2341 2347 2371 2335 2346 2353 2357 2349
2413 2424 2400 2409 2419 2392 2391 2401 2393 2405 2383 2396 2396 2383 2388 2391 2389 2373 2379 2376 2384 2378 2377 2375 2373 2376 2377 2378 2369 2368 2364 2365 2373 2367 2362 2359 2364 2359 2364 2359 2363 2361 2356 2355 2360 2352 2358 2350 2352 2349 2358 2355 2347 2340 2357 2353 2352 2356 2356 2346 2356 2356 2344 2348 2357 2353 2343 2350 2344 2345 2358 2357 2354 2355 2341 2348 2353 2356 2350 2346 2346 2355 2342 2345 2347 2349 2351 2347 2354 2350 2345 2346 2347 2347 2360 2353 2347 2355 2359 2350 2353 2357 2337 2344 2347 2348 2347 2354 2353 2362 2338 2342 2344 2360 2332 2350 2321 2359 2318 2350
2441 2439 2412 2428 2425 2427 2432 2395 2408 2416 2412 2393 2396 2408 2403 2421 2389 2393 2377 2395 2399 2383 2381 2379 2384 2373 2373 2381 2372 2365 2374 2363 2364 2365 2370 2359 2357 2368 2364 2354 2370 2354 2355 2367 2364 2354 2353 2354 2354 2347 2359 2359 2360 2361 2352 2351 2358 2357 2357 2360 2353 2357 2361 2355 2347 2352 2354 2367 2348 2342 2355 2350 2354 2357 2354 2346 2363 2346 2345 2355 2356 2341 2357 2354 2358 2356 2350 2355 2352 2361 2351 2359 2359 2352 2359 2353 2337 2346 2350 2360 2349 2364 2356 2349 2356 2353 2350 2361 2324 2367 2342 2351 2352 2345 2328 2367 2372 2394 2354 2365
2446 2465 2535 2471 2460 2491 2463 2469 2432 2428 2439 2427 2433 2398 2398 2426 2413 2412 2412 2394 2406 2401 2397 2408 2403 2401 2402 2395 2379 2373 2372 2372 2371 2372 2368 2366 2368 2354 2370 2364 2362 2351 2362 2355 2357 2359 2363 2356 2360 2363 2355 2359 2357 2357 2357 2353 2362 2361 2355 2355 2355 2355 2353 2357 2352 2345 2355 2353 2352 2350 2352 2350 2349 2356 2354 2349 2352 2352 2352 2338 2347 2354 2358 2345 2344 2353 2357 2356 2351 2357 2350 2348 2359 2357 2360 2357 2361 2351 2358 2350 2353 2341 2347 2350 2350 2342 2346 2344 2349 2355 2365 2323 2360 2351 2347 2365 2365 2305 2343 2312
2528 2733 2803 2669 2767 2615 2550 2532 2562 2534 2580 2540 2498 2422 2460 2494 2468 2498 2553 2581 2529 2500 2527 2711 2565 2541 2488 2385 2379 2375 2373 2379 2368 2378 2362 2371 2380 2372 2362 2356 2363 2358 2364 2363 2361 2364 2362 2358 2355 2350 2354 2355 2349 2356 2351 2358 2362 2365 2366 2361 2348 2358 2352 2356 2352 2355 2347 2354 2357 2352 2353 2348 2346 2355 2347 2352 2358 2348 2351 2357 2345 2354 2360 2358 2349 2368 2354 2358 2360 2369 2369 2380 2390 2387 2406 2398 2374 2384 2389 2373 2385 2362 2415 2385 2387 2385 2389 2378 2390 2394 2397 2395 2430 2373 2374 2356 2446 2456 2435 2504
2840 2623 2511 2516 2490 2522 2512 2436 2459 2485 2463 2415 2441 2432 2401 2426 2418 2428 2436 2403 2394 2396 2393 2396 2379 2393 2389 2381 2378 2382 2372 2359 2379 2366 2363 2368 2356 2359 2365 2362 2360 2361 2354 2365 2356 2357 2363 2350 2348 2351 2353 2355 2351 2360 2353 2356 2359 2356 2352 2344 2342 2343 2346 2354 2351 2353 2350 2352 2346 2346 2348 2351 2350 2345 2349 2347 2354 2345 2355 2344 2351 2348 2347 2349 2352 2355 2363 2363 2354 2346 2356 2360 2337 2355 2371 2344 2378 2365 2364 2368 2359 2345 2357 2364 2364 2349 2350 2346 2391 2368 2375 2369 2348 2371 2358 2355 2395 2293 2467 0
2965 2795 2882 2719 2787 2756 2687 2550 2574 2564 2531 2579 2556 2536 2516 2520 2503 2538 2511 2519 2532 2495 2487 2446 2489 2488 2499 2466 2420 2377 2370 2372 2369 2360 2365 2364 2359 2363 2348 2364 2366 2356 2365 2355 2363 2358 2361 2344 2345 2349 2357 2351 2352 2365 2347 2360 2360 2364 2357 2350 2349 2343 2360 2353 2348 2352 2344 2350 2345 2350 2342 2351 2344 2355 2347 2350 2350 2350 2347 2343 2347 2349 2345 2346 2350 2352 2349 2384 2384 2417 2401 2374 2394 2406 2415 2375 2383 2391 2389 2389 2400 2367 2378 2419 2390 2419 2406 2395 2394 2420 2446 2374 2449 2367 2406 2378 2416 2434 0 0
2576 2619 2636 2547 2582 2588 2584 2528 2528 2530 2531 2513 2516 2509 2510 2514 2507 2498 2501 2510 2484 2485 2483 2484 2486 2484 2481 2476 2432 2386 2379 2369 2380 2381 2370 2369 2368 2368 2373 2373 2364 2372 2359 2359 2365 2357 2358 2361 2356 2360 2364 2363 2365 2360 2360 2364 2361 2369 2357 2360 2364 2364 2357 2356 2361 2355 2352 2349 2352 2355 2363 2361 2359 2354 2351 2351 2348 2342 2353 2347 2351 2360 2355 2348 2368 2365 2370 2451 2444 2460 2452 2451 2454 2456 2473 2461 2456 2470 2497 2485 2476 2473 2478 2451 2460 2489 2466 2473 2475 2478 2494 2484 2536 2510 2590 2519 2519 2518 2580 0
2630 2618 2593 2575 2538 2535 2574 2515 2510 2523 2517 2524 2504 2499 2512 2499 2487 2491 2498 2500 2492 2488 2483 2485 2479 2469 2474 2454 2426 2371 2374 2376 2360 2370 2366 2351 2360 2362 2365 2361 2360 2352 2364 2360 2353 2354 2350 2351 2360 2355 2353 2351 2347 2347 2360 2349 2355 2364 2356 2345 2350 2347 2352 2357 2351 2349 2348 2353 2356 2347 2342 2342 2343 2347 2335 2344 2349 2345 2344 2353 2345 2341 2342 2349 2355 2360 2386 2444 2434 2446 2449 2438 2439 2448 2434 2449 2449 2441 2442 2449 2446 2437 2435 2463 2447 2439 2449 2447 2428 2439 2432 2432 2430 2434 2453 2493 2446 2494 2481 2512
2586 2650 2612 2595 2530 2526 2547 2557 2514 2531 2519 2504 2481 2494 2503 2499 2489 2483 2493 2476 2485 2472 2460 2471 2455 2464 2460 2453 2399 2382 2370 2369 2382 2372 2370 2379 2368 2366 2360 2361 2364 2368 2370 2360 2363 2359 2354 2360 2353 2361 2364 2356 2351 2356 2364 2355 2358 2357 2360 2353 2349 2351 2354 2354 2354 2353 2351 2352 2347 2355 2346 2354 2357 2354 2342 2350 2342 2357 2351 2353 2348 2350 2351 2360 2353 2363 2386 2427 2425 2449 2462 2440 2454 2443 2445 2437 2446 2439 2456 2469 2437 2431 2448 2449 2444 2442 2452 2459 2466 2439 2453 2459 2464 2435 2467 2443 2446 2455 2548 2605
2566 2553 2621 2573 2515 2529 2566 2526 2526 2525 2508 2522 2495 2498 2485 2527 2493 2493 2494 2507 2486 2487 2477 2482 2474 2480 2471 2474 2425 2381 2377 2365 2367 2369 2365 2370 2364 2371 2361 2366 2365 2360 2360 2370 2366 2373 2357 2350 2363 2368 2361 2358 2366 2358 2355 2361 2354 2357 2308 2352 2351 2356 2346 2365 2363 2359 2354 2354 2353 2355 2357 2349 2351 2355 2348 2353 2361 2357 2349 2349 2352 2358 2353 2357 2351 2363 2388 2423 2452 2443 2442 2435 2436 2453 2444 2432 2421 2446 2447 2441 2447 2443 2447 2434 2434 2444 2433 2439 2445 2449 2453 2457 2469 2483 2442 2473 2468 2591 2486 2600
2752 2768 2861 2683 2640 2630 2639 2623 2546 2554 2543 2589 2526 2526 2522 2562 2525 2513 2519 2498 2509 2512 2501 2508 2503 2506 2505 2483 2412 2367 2365 2377 2368 2368 2366 2361 2368 2362 2351 2363 2368 2367 2361 2358 2365 2344 2355 2349 2359 2356 2357 2353 2346 2352 2362 2358 2358 2358 2356 2347 2354 2345 2344 2355 2351 2355 2351 2346 2350 2348 2352 2363 2350 2349 2353 2346 2358 2354 2353 2353 2348 2353 2357 2356 2354 2338 2384 2433 2429 2436 2448 2442 2442 2460 2443 2452 2457 2445 2439 2467 2444 2454 2447 2444 2451 2452 2447 2447 2461 2450 2458 2452 2460 2464 2442 2436 2446 2544 2545 2550
2929 3163 0 2941 2629 2722 2788 2699 2702 2622 2601 2644 2555 2538 2563 2571 2491 2534 2520 2540 2535 2514 2512 2513 2507 2474 2476 2487 2412 2362 2377 2366 2364 2372 2371 2370 2362 2369 2369 2359 2362 2353 2362 2354 2362 2368 2368 2355 2357 2359 2352 2358 2353 2357 2354 2352 2343 2362 2351 2356 2344 2353 2353 2349 2351 2349 2348 2352 2351 2348 2347 2345 2351 2347 2342 2344 2350 2345 2349 2352 2351 2361 2354 2360 2345 2349 2365 2422 2426 2445 2457 2460 2462 2452 2455 2446 2429 2460 2453 2448 2447 2465 2465 2456 2440 2477 2421 2499 2423 2460 2513 2485 2522 2478 2466 2538 2527 2524 2481 0
2910 2932 2983 2922 2658 2680 2734 2755 2668 2619 2617 2675 2639 2594 2568 2565 2581 2567 2538 2542 2523 2512 2540 2545 2485 2514 2499 2502 2400 2383 2388 2373 2374 2371 2377 2371 2365 2372 2363 2365 2375 2370 2374 2364 2357 2365 2349 2361 2352 2354 2362 2358 2356 2360 2354 2353 2360 2353 2359 2359 2356 2359 2357 2346 2350 2346 2347 2354 2351 2351 2352 2355 2356 2352 2350 2356 2349 2360 2349 2351 2357 2351 2351 2357 2360 2352 2377 2451 2452 2463 2442 2436 2474 2461 2455 2479 2459 2498 2468 2488 2464 2470 2519 2484 2502 2483 2475 2499 2502 2535 2474 2561 2565 2566 2575 2482 0 0 0 0
2629 2623 2783 2581 2520 2538 2582 2540 2510 2523 2543 2561 2515 2520 2513 2514 2506 2486 2498 2482 2497 2513 2497 2508 2469 2477 2474 2477 2420 2383 2383 2373 2372 2373 2376 2369 2369 2366 2370 2369 2359 2357 2361 2360 2360 2353 2350 2354 2353 2347 2363 2365 2357 2349 2357 2355 2346 2356 2357 2356 2356 2345 2347 2336 2346 2349 2343 2348 2347 2354 2350 2352 2343 2355 2354 2343 2347 2355 2342 2358 2353 2356 2353 2357 2351 2360 2363 2435 2474 2441 2453 2451 2437 2457 2438 2458 2467 2471 2465 2496 2457 2481 2482 2465 2483 2449 2460 2446 2459 2487 2554 2501 2496 2537 2500 2509 2585 2654 0 0
2573 2562 2634 2557 2525 2519 2546 2542 2508 2506 2501 2536 2513 2492 2506 2498 2482 2494 2495 2493 2494 2479 2480 2483 2481 2473 2477 2451 2402 2385 2359 2364 2369 2371 2366 2362 2365 2361 2357 2352 2355 2363 2359 2356 2357 2350 2357 2355 2355 2355 2355 2351 2357 2349 2354 2359 2353 2355 2364 2351 2348 2351 2357 2352 2344 2344 2342 2351 2344 2350 2348 2345 2354 2349 2345 2343 2350 2352 2347 2340 2343 2355 2351 2350 2361 2351 2379 2426 2437 2451 2438 2441 2452 2438 2455 2439 2440 2429 2444 2443 2440 2437 2445 2442 2438 2439 2437 2424 2469 2456 2444 2463 2422 2437 2436 2440 2457 2433 2456 2486
2607 2605 2670 2569 2532 2530 2564 2531 2528 2508 2505 2551 2529 2523 2505 2519 2501 2521 2498 2518 2494 2490 2508 2500 2490 2488 2489 2470 2406 2390 2381 2374 2380 2368 2365 2372 2369 2367 2359 2364 2357 2362 2357 2361 2356 2355 2357 2359 2362 2359 2359 2353 2363 2354 2354 2361 2355 2354 2355 2350 2353 2350 2352 2353 2351 2355 2348 2354 2349 2348 2348 2348 2347 2350 2353 2351 2354 2353 2354 2352 2351 2352 2357 2349 2349 2357 2374 2427 2418 2425 2433 2443 2441 2437 2461 2412 2466 2439 2448 2449 2463 2442 2454 2434 2448 2448 2433 2437 2462 2452 2448 2483 2495 2443 2481 2474 2451 2581 2501 2676
2661 2596 2678 2595 2536 2529 2563 2530 2511 2512 2527 2545 2502 2515 2503 2537 2501 2502 2501 2495 2496 2495 2495 2492 2491 2480 2485 2471 2426 2375 2369 2375 2374 2371 2362 2363 2371 2372 2368 2362 2367 2358 2361 2357 2357 2360 2355 2354 2358 2357 2347 2355 2352 2352 2357 2354 2355 2358 2353 2352 2348 2353 2352 2339 2350 2353 2347 2353 2348 2362 2351 2353 2346 2345 2351 2346 2347 2342 2358 2349 2348 2349 2357 2352 2341 2360 2369 2426 2438 2445 2430 2423 2447 2430 2437 2425 2431 2447 2454 2428 2427 2422 2449 2445 2437 2450 2407 2432 2470 2472 2420 2477 2476 2458 2476 2437 2454 2446 2419 2376
0 2896 3031 2855 2606 2561 2619 2579 2535 2547 2515 2579 2464 2511 2514 2488 2531 2497 2508 2469 2496 2524 2484 2504 2483 2458 2461 2444 2399 2377 2366 2365 2364 2375 2360 2361 2354 2365 2360 2358 2362 2355 2355 2359 2354 2354 2347 2349 2356 2351 2348 2353 2349 2351 2350 2358 2351 2341 2342 2344 2340 2344 2336 2344 2339 2342 2341 2352 2350 2342 2345 2352 2347 2338 2343 2346 2341 2339 2347 2345 2351 2344 2345 2348 2349 2347 2376 2403 2437 2429 2439 2414 2432 2436 2444 2438 2434 2436 2437 2434 2438 2433 2424 2418 2444 2425 2450 2407 2427 2425 2458 2424 2426 2413 2444 2443 2393 2416 2475 2485
0 0 0 0 2625 2733 2701 2742 2609 2693 2624 2639 2549 2601 2551 2588 2604 2570 2595 2585 2588 2552 2552 2591 2496 2543 2478 2507 2387 2372 2385 2377 2378 2370 2377 2363 2363 2366 2365 2365 2363 2361 2365 2362 2362 2366 2368 2359 2360 2361 2364 2364 2355 2350 2359 2356 2363 2359 2351 2359 2364 2350 2360 2351 2352 2354 2354 2355 2355 2347 2346 2355 2357 2351 2347 2351 2348 2361 2353 2350 2362 2352 2353 2359 2359 2355 2369 2423 2441 2471 2462 2476 2475 2475 2465 2460 2440 2472 2473 2466 2460 2467 2474 2460 2446 2473 2474 2441 2552 2483 2473 2512 2469 2590 2545 2579 2579 2687 0 0
2692 2649 2771 2597 2687 2598 2602 2614 2567 2572 2613 2555 2553 2560 2572 2587 2542 2530 2537 2563 2525 2508 2489 2510 2483 2501 2464 2444 2390 2385 2383 2380 2374 2376 2372 2375 2364 2367 2369 2364 2363 2359 2367 2368 2361 2356 2354 2366 2366 2362 2357 2354 2358 2357 2351 2363 2358 2355 2356 2354 2350 2352 2351 2357 2356 2362 2354 2349 2350 2358 2347 2353 2342 2347 2342 2361 2346 2341 2347 2355 2353 2345 2350 2362 2354 2354 2365 2416 2437 2457 2453 2464 2486 2449 2458 2469 2492 2466 2485 2451 2461 2476 2511 2446 2453 2437 2462 2504 2496 2581 2523 2443 2604 2535 2635 0 0 0 0 0
2599 2546 2577 2523 2524 2515 2505 2526 2511 2496 2489 2519 2496 2489 2504 2505 2499 2490 2495 2518 2493 2483 2492 2474 2474 2472 2471 2457 2414 2375 2370 2379 2377 2374 2367 2364 2366 2364 2366 2361 2360 2364 2357 2357 2357 2365 2357 2361 2349 2354 2366 2361 2357 2357 2351 2348 2359 2348 2349 2355 2353 2350 2348 2349 2359 2348 2346 2352 2351 2347 2347 2349 2348 2343 2351 2346 2353 2356 2358 2347 2347 2354 2350 2350 2351 2348 2373 2421 2430 2437 2435 2407 2446 2467 2434 2443 2425 2433 2452 2453 2480 2436 2445 2450 2444 2414 2469 2456 2414 2471 2449 2452 2476 2446 2458 2501 2667 2446 2551 0
2562 2665 2573 2543 2523 2505 2519 2528 2490 2498 2533 2510 2501 2496 2502 2490 2487 2493 2505 2489 2497 2468 2485 2467 2485 2484 2469 2470 2390 2381 2381 2379 2374 2378 2364 2373 2367 2373 2371 2363 2366 2366 2368 2366 2358 2364 2366 2360 2358 2363 2358 2357 2351 2363 2362 2353 2357 2362 2356 2355 2358 2356 2360 2350 2349 2346 2360 2357 2348 2358 2354 2346 2352 2355 2359 2353 2355 2351 2350 2347 2355 2354 2354 2357 2350 2349 2392 2435 2437 2448 2438 2446 2451 2442 2441 2448 2430 2436 2437 2439 2447 2435 2442 2443 2451 2428 2432 2441 2442 2434 2425 2437 2429 2442 2435 2437 2472 2466 2480 2445
2689 2597 2587 2524 2530 2545 2568 2557 2504 2524 2543 2545 2505 2497 2515 2507 2496 2505 2505 2511 2478 2493 2493 2474 2469 2475 2471 2464 2400 2381 2386 2363 2376 2372 2362 2377 2367 2370 2372 2379 2370 2362 2361 2365 2373 2363 2358 2368 2365 2359 2362 2357 2362 2355 2355 2359 2360 2356 2366 2361 2358 2356 2359 2364 2357 2353 2356 2362 2362 2354 2346 2356 2350 2350 2353 2359 2355 2349 2362 2353 2348 2366 2359 2356 2350 2361 2385 2449 2460 2456 2433 2452 2455 2436 2463 2446 2451 2464 2461 2479 2419 2469 2440 2469 2465 2449 2462 2441 2456 2445 2463 2496 2499 2534 2486 2526 2509 2515 2459 2655
2584 2577 2621 2551 2547 2517 2592 2520 2525 2529 2524 2521 2496 2509 2498 2486 2501 2491 2496 2512 2482 2491 2488 2493 2489 2482 2492 2477 2408 2384 2379 2381 2373 2363 2375 2373 2375 2371 2362 2360 2367 2369 2375 2376 2372 2357 2358 2361 2360 2357 2355 2358 2359 2355 2360 2354 2357 2355 2354 2363 2357 2352 2360 2354 2359 2355 2356 2352 2349 2354 2361 2353 2354 2353 2354 2349 2352 2353 2345 2359 2350 2349 2356 2345 2357 2348 2377 2428 2425 2423 2446 2453 2436 2441 2453 2457 2429 2432 2455 2421 2462 2448 2461 2451 2414 2417 2439 2433 2464 2454 2450 2456 2469 2384 2452 2456 2502 2485 2423 2600
3054 2837 2817 2667 2728 2613 2664 2583 2573 2572 2626 2593 2547 2549 2528 2559 2521 2545 2518 2545 2548 2527 2527 2529 2493 2509 2494 2489 2397 2388 2383 2382 2378 2373 2373 2371 2375 2376 2373 2368 2371 2360 2368 2379 2375 2366 2365 2367 2360 2360 2361 2365 2367 2362 2363 2358 2361 2365 2358 2363 2355 2348 2365 2359 2363 2356 2356 2356 2358 2352 2355 2352 2357 2342 2366 2348 2359 2359 2351 2362 2352 2362 2346 2352 2369 2363 2401 2453 2439 2449 2452 2453 2458 2440 2449 2469 2444 2457 2446 2466 2440 2453 2449 2441 2446 2455 2433 2438 2460 2418 2419 2503 2410 2456 2431 2521 2408 2478 2464 2456
0 3206 0 3123 3012 2884 2837 3054 2742 2735 2784 2806 2664 2667 2720 2708 2683 2573 2622 2712 2632 2516 2554 2486 2529 2561 2558 2493 2410 2378 2391 2380 2375 2379 2374 2371 2377 2371 2366 2371 2373 2368 2371 2370 2363 2366 2367 2361 2364 2370 2373 2361 2368 2363 2366 2365 2351 2367 2359 2354 2362 2367 2356 2363 2358 2354 2360 2364 2361 2366 2365 2351 2362 2351 2358 2353 2355 2365 2357 2351 2352 2361 2349 2358 2367 2367 2380 2458 2485 2487 2493 2501 2454 2514 2488 2499 2463 2472 2504 2483 2514 2479 2507 2477 2456 2482 2484 2491 2504 2504 2511 2538 2495 2542 2602 2665 0 0 0 0
2887 2624 2538 2538 2580 2558 2533 2592 2475 2487 2465 2482 2485 2486 2468 2483 2417 2470 2462 2480 2421 2441 2405 2408 2417 2398 2465 2395 2390 2387 2388 2366 2382 2385 2373 2380 2381 2376 2378 2370 2370 2376 2359 2370 2370 2362 2363 2363 2368 2365 2365 2368 2365 2359 2359 2370 2356 2359 2372 2360 2361 2358 2356 2358 2359 2358 2352 2355 2355 2359 2353 2358 2355 2355 2346 2355 2352 2361 2352 2350 2355 2361 2372 2346 2347 2369 2379 2422 2472 2432 2443 2404 2461 2462 2467 2438 2519 2437 2475 2434 2442 2472 2493 2496 2439 2529 2524 2459 2454 2485 2493 2618 0 2424 0 0 0 0 0 0
2531 2665 2782 2855 2593 2666 2684 2715 2633 2595 2568 2560 2571 2482 2499 2477 2483 2504 2545 2523 2500 2439 2458 2500 2486 2455 2425 2400 2385 2375 2387 2393 2379 2373 2378 2386 2373 2369 2372 2368 2370 2378 2371 2374 2365 2367 2362 2368 2365 2358 2367 2358 2364 2359 2368 2358 2352 2366 2355 2358 2354 2354 2356 2351 2358 2365 2354 2367 2361 2359 2354 2366 2353 2363 2355 2357 2359 2358 2354 2361 2364 2356 2355 2357 2360 2364 2358 2372 2377 2364 2356 2374 2374 2364 2373 2375 2358 2366 2371 2373 2375 2365 2346 2396 2376 2387 2362 2414 2365 2416 2453 2388 2430 2425 2433 2380 2416 2418 2439 0
2542 2480 2510 2548 2483 2509 2515 2474 2454 2484 2483 2478 2514 2478 2466 2447 2464 2492 2504 2511 2483 2468 2451 2483 2471 2445 2437 2389 2398 2396 2404 2386 2395 2378 2387 2376 2380 2378 2378 2385 2386 2376 2379 2383 2380 2370 2383 2377 2377 2374 2374 2362 2373 2367 2374 2367 2368 2366 2366 2371 2372 2364 2370 2369 2368 2366 2375 2367 2365 2369 2372 2370 2361 2367 2371 2368 2365 2365 2363 2359 2363 2357 2371 2362 2360 2375 2377 2399 2399 2400 2427 2412 2402 2418 2425 2401 2412 2436 2430 2395 2432 2356 2449 2428 2390 2465 2432 2421 2490 2514 2505 2489 2456 2515 2452 2447 2596 2573 0 0
2543 2475 2431 2444 2460 2440 2451 2417 2431 2427 2424 2419 2427 2412 2416 2419 2415 2406 2410 2422 2400 2403 2411 2410 2396 2413 2403 2395 2403 2386 2386 2386 2384 2380 2368 2376 2377 2373 2380 2374 2381 2370 2374 2375 2379 2360 2368 2377 2368 2374 2369 2361 2374 2362 2372 2363 2363 2370 2366 2370 2354 2361 2362 2360 2359 2356 2372 2355 2364 2362 2361 2350 2365 2372 2356 2355 2369 2360 2360 2367 2364 2363 2363 2359 2367 2370 2354 2358 2362 2364 2372 2370 2376 2360 2357 2352 2361 2369 2370 2362 2357 2376 2328 2379 2366 2405 2373 2372 2387 2373 2366 2382 2388 2361 2381 2387 2432 2491 2332 0
2526 2436 2448 2428 2445 2451 2439 2440 2432 2423 2438 2421 2418 2408 2408 2403 2404 2417 2399 2429 2417 2403 2397 2408 2398 2393 2396 2394 2388 2392 2389 2395 2386 2392 2392 2380 2379 2378 2378 2382 2376 2378 2378 2383 2367 2368 2366 2365 2374 2364 2372 2377 2367 2365 2373 2373 2364 2372 2369 2367 2361 2369 2363 2359 2361 2357 2361 2368 2374 2368 2359 2356 2363 2361 2360 2360 2355 2372 2363 2365 2359 2363 2353 2370 2366 2361 2364 2371 2375 2372 2371 2375 2373 2377 2368 2367 2360 2381 2349 2360 2362 2382 2366 2364 2370 2379 2364 2367 2378 2363 2361 2372 2404 2377 2372 2392 2398 2399 2428 2431
2516 2470 2438 2411 2399 2422 2438 2431 2429 2413 2415 2416 2408 2420 2407 2416 2411 2393 2401 2392 2400 2399 2414 2407 2397 2409 2402 2409 2380 2401 2382 2391 2386 2395 2376 2389 2376 2381 2381 2380 2377 2374 2379 2374 2380 2368 2375 2367 2367 2370 2372 2375 2375 2373 2371 2368 2368 2382 2366 2375 2362 2368 2370 2372 2362 2371 2365 2363 2373 2359 2361 2373 2367 2370 2369 2363 2368 2357 2369 2364 2377 2376 2364 2371 2355 2369 2380 2357 2368 2373 2361 2367 2363 2372 2359 2371 2374 2380 2372 2369 2363 2363 2378 2380 2358 2366 2368 2374 2384 2363 2379 2383 2417 2409 2447 2382 2360 2383 2555 2468
2483 2463 2450 2423 2431 2438 2433 2401 2419 2409 2418 2410 2395 2408 2423 2416 2403 2391 2396 2401 2392 2403 2385 2390 2383 2388 2386 2391 2395 2387 2386 2382 2386 2379 2375 2374 2382 2377 2379 2381 2379 2374 2383 2370 2364 2373 2357 2371 2367 2375 2378 2365 2371 2375 2369 2359 2371 2362 2365 2358 2350 2363 2355 2372 2363 2359 2360 2364 2353 2361 2358 2364 2365 2363 2365 2360 2356 2358 2371 2365 2365 2360 2367 2355 2350 2370 2373 2364 2373 2351 2352 2356 2350 2365 2365 2353 2376 2375 2348 2378 2370 2354 2365 2366 2362 2348 2369 2365 2369 2351 2373 2414 2402 2409 2383 2384 2431 2423 2454 2578
2507 2438 2442 2418 2437 2427 2433 2411 2415 2419 2414 2406 2406 2401 2404 2403 2407 2397 2388 2408 2398 2386 2404 2400 2398 2398 2380 2374 2389 2388 2400 2384 2379 2390 2386 2378 2375 2388 2376 2363 2394 2364 2364 2375 2364 2370 2366 2357 2375 2372 2370 2363 2372 2360 2363 2365 2369 2351 2359 2368 2366 2363 2362 2365 2367 2359 2353 2357 2365 2357 2359 2356 2354 2357 2374 2351 2351 2356 2361 2365 2363 2358 2366 2357 2364 2358 2367 2354 2358 2363 2357 2348 2360 2375 2345 2377 2365 2349 2355 2341 2369 2363 2357 2367 2362 2340 2363 2367 2355 2366 2363 2378 2362 2382 2362 2399 2401 2431 2356 2392
2565 2511 2436 2464 2405 2451 2444 2434 2432 2415 2406 2397 2407 2400 2404 2419 2417 2406 2401 2395 2393 2400 2397 2401 2396 2398 2395 2396 2395 2402 2370 2376 2382 2381 2392 2385 2398 2368 2381 2381 2387 2370 2373 2366 2363 2370 2360 2376 2370 2364 2358 2367 2366 2368 2359 2366 2367 2383 2370 2370 2354 2358 2363 2374 2348 2365 2355 2364 2361 2359 2363 2361 2367 2366 2363 2368 2356 2362 2357 2363 2350 2363 2353 2363 2357 2356 2366 2362 2370 2360 2351 2350 2362 2358 2359 2354 2359 2357 2353 2366 2364 2346 2365 2352 2349 2357 2375 2339 2352 2364 2368 2361 2354 2360 2402 2368 2347 2331 2501 2594
2622 2492 2498 2438 2453 2455 2437 2443 2435 2423 2421 2417 2430 2417 2420 2403 2401 2417 2390 2414 2404 2397 2393 2399 2399 2396 2374 2403 2382 2384 2383 2397 2376 2383 2378 2383 2380 2396 2382 2373 2379 2385 2374 2376 2370 2372 2362 2368 2376 2380 2365 2378 2371 2361 2366 2360 2365 2359 2363 2357 2358 2371 2368 2367 2377 2370 2356 2365 2353 2363 2359 2360 2367 2362 2357 2361 2356 2377 2372 2370 2367 2369 2368 2371 2368 2368 2366 2370 2368 2365 2377 2378 2354 2361 2361 2364 2366 2365 2377 2365 2362 2351 2378 2363 2357 2355 2363 2349 2377 2377 2383 2386 2393 2399 2384 2441 2477 2487 2495 2575
2639 2485 2469 2436 2418 2430 2429 2415 2402 2436 2411 2396 2423 2405 2397 2400 2408 2400 2412 2397 2369 2389 2398 2402 2410 2374 2379 2382 2397 2379 2374 2363 2372 2371 2390 2380 2362 2377 2365 2374 2384 2375 2364 2358 2368 2365 2356 2364 2359 2356 2364 2357 2373 2353 2349 2356 2354 2353 2363 2361 2351 2369 2354 2361 2351 2357 2352 2354 2359 2354 2356 2355 2346 2350 2352 2353 2359 2355 2351 2362 2352 2356 2358 2368 2354 2366 2351 2352 2350 2348 2353 2355 2337 2346 2362 2358 2335 2357 2355 2359 2363 2361 2345 2359 2339 2349 2346 2346 2370 2371 2348 2359 2386 2333 2385 2381 2391 2405 2465 2418
2571 2596 2472 2464 2463 2443 2432 2435 2437 2414 2418 2462 2422 2429 2405 2415 2408 2399 2446 2408 2414 2399 2404 2420 2392 2410 2391 2386 2396 2393 2384 2374 2390 2391 2392 2385 2388 2388 2373 2379 2398 2385 2370 2362 2375 2367 2372 2372 2376 2369 2367 2376 2375 2357 2408 2367 2369 2375 2371 2362 2357 2358 2350 2368 2378 2351 2355 2363 2354 2357 2349 2364 2372 2361 2349 2360 2372 2369 2354 2366 2366 2348 2361 2380 2365 2379 2365 2373 2358 2380 2349 2369 2356 2384 2369 2356 2372 2383 2374 2361 2366 2347 2367 2373 2368 2362 2352 2365 2363 2386 2368 2346 2384 2393 2479 2412 2407 2429 2541 2542
2923 2600 2511 2473 2511 2469 2431 2437 2419 2466 2412 2437 2413 2405 2394 2431 2406 2424 2403 2411 2410 2395 2400 2408 2396 2395 2397 2403 2404 2400 2392 2379 2394 2387 2393 2380 2376 2378 2365 2361 2371 2374 2375 2384 2374 2370 2360 2352 2366 2363 2358 2355 2370 2382 2370 2356 2358 2368 2375 2368 2367 2376 2376 2358 2353 2358 2374 2372 2363 2372 2372 2368 2374 2368 2360 2356 2352 2354 2364 2355 2362 2351 2366 2385 2358 2379 2369 2362 2344 2364 2359 2353 2363 2370 2372 2370 2373 2373 2370 2364 2343 2367 2374 2387 2374 2361 2353 2343 2369 2391 2380 2424 2403 2390 2445 2496 2477 2533 2568 2625
2667 2455 2490 2428 2441 2424 2475 2442 2414 2396 2429 2418 2405 2432 2379 2391 2402 2365 2386 2375 2380 2374 2377 2375 2386 2387 2382 2361 2359 2377 2349 2369 2373 2369 2372 2366 2360 2362 2364 2358 2368 2384 2361 2347 2355 2354 2350 2344 2357 2351 2357 2350 2352 2339 2355 2342 2349 2342 2357 2346 2345 2352 2337 2345 2330 2333 2361 2343 2344 2364 2345 2340 2353 2339 2354 2345 2352 2328 2339 2332 2326 2334 2339 2351 2336 2343 2315 2341 2353 2332 2338 2316 2353 2351 2362 2347 2353 2336 2347 2365 2346 2344 2336 2321 2333 2333 2343 2347 2347 2369 2391 2361 2342 2432 2370 2429 2377 2343 2396 0
2774 2639 2553 2504 2480 2499 2448 2426 2470 2388 2431 2435 2420 2408 2429 2440 2412 2410 2434 2405 2394 2389 2412 2429 2387 2413 2407 2396 2402 2409 2397 2421 2363 2380 2374 2373 2378 2378 2357 2348 2382 2349 2366 2376 2360 2368 2396 2369 2363 2375 2376 2372 2371 2351 2365 2377 2352 2366 2357 2360 2374 2361 2337 2369 2356 2367 2367 2339 2340 2352 2354 2359 2358 2348 2362 2355 2355 2361 2351 2338 2329 2360 2359 2356 2384 2385 2360 2373 2357 2375 2349 2382 2350 2360 2386 2346 2365 2349 2367 2357 2352 2374 2344 2383 2335 2365 2361 2369 2358 2391 2361 2434 2388 2392 2376 2439 2450 2453 2442 0
2867 2681 2624 2495 2497 2576 2529 2470 2449 2427 2434 2448 2467 2434 2461 2405 2400 2375 2403 2433 2419 2367 2406 2399 2378 2402 2420 2414 2407 2376 2407 2368 2385 2356 2385 2372 2391 2368 2363 2348 2384 2367 2365 2372 2377 2366 2362 2376 2347 2364 2373 2363 2399 2362 2387 2367 2368 2347 2368 2353 2350 2349 2357 2369 2361 2372 2356 2363 2365 2352 2367 2356 2365 2373 2352 2358 2344 2365 2356 2356 2364 2351 2348 2369 2348 2353 2355 2368 2369 2354 2346 2366 2370 2359 2357 2358 2361 2352 2361 2383 2335 2358 2336 2346 2353 2374 2374 2351 2373 2448 2378 2382 2390 2434 2557 2434 2492 2599 0 0
3124 2761 2588 2489 2520 2579 2511 2451 2395 2436 2428 2407 2374 2424 2434 2371 2396 2374 2377 2377 2394 2396 2387 2387 2387 2370 2382 2355 2370 2383 2372 2361 2368 2393 2378 2350 2355 2332 2345 2364 2370 2366 2367 2347 2368 2348 2364 2366 2359 2354 2370 2368 2346 2360 2338 2348 2318 2340 2348 2356 2360 2344 2324 2330 2343 2321 2336 2338 2327 2343 2356 2327 2345 2349 2346 2338 2342 2331 2346 2340 2356 2335 2344 2343 2332 2349 2356 2343 2332 2359 2320 2319 2334 2320 2362 2365 2341 2347 2336 2361 2310 2354 2339 2347 2349 2344 2345 2400 2334 2338 2379 2336 2376 2481 2500 0 0 0 0 0
3298 3094 2728 2578 2538 2596 2606 2709 2472 2488 2473 2415 2420 2480 2497 2406 2452 2447 2423 2406 2413 2406 2411 2403 2390 2383 2379 2404 2405 2404 2381 2370 2411 2385 2391 2379 2355 2373 2383 2374 2385 2384 2373 2371 2359 2394 2404 2363 2362 2342 2371 2359 2356 2377 2352 2368 2346 2390 2372 2360 2346 2349 2348 2356 2361 2367 2372 2358 2376 2347 2343 2358 2360 2376 2353 2356 2369 2348 2362 2365 2349 2355 2353 2363 2357 2383 2384 2376 2374 2343 2368 2352 2351 2358 2356 2351 2337 2361 2377 2347 2337 2380 2361 2343 2342 2398 2357 2367 2361 2421 2432 2367 2353 2416 2517 0 0 0 0 0
3767 3592 3068 2731 2719 2816 0 2740 2659 2508 2538 2513 2474 2457 2475 2480 2481 2427 2441 2420 2421 2529 2429 2417 2426 2397 2421 2443 2406 2392 2424 2411 2395 2379 2399 2393 2360 2380 2348 2377 2398 2369 2370 2363 2355 2385 2384 2371 2400 2367 2386 2369 2377 2384 2384 2398 2389 2393 2375 2375 2366 2377 2364 2385 2369 2360 2376 2319 2372 2387 2375 2369 2360 2368 2349 2392 2391 2376 2387 2384 2378 2368 2353 2358 2406 2377 2413 2389 2351 2363 2336 2347 2386 2362 2395 2369 2359 2385 2367 2354 2361 2363 2381 2373 2400 2377 2382 2365 2408 2357 2483 2488 2479 2406 2693 0 0 0 0 0
4045 3761 3238 0 2953 0 0 0 0 0 2619 2517 2563 2581 2451 2444 2471 2455 2423 2450 2444 2349 2449 2407 2426 2433 2425 2363 2490 2473 2410 2367 2399 2345 2452 2403 2405 2349 2356 2377 2384 2356 2361 2381 2392 2373 2385 2384 2382 2372 2345 2378 2351 2381 2349 2373 2369 2394 2353 2352 2361 2374 2346 2380 2363 2384 2372 2361 2385 2322 2351 2344 2343 2327 2393 2391 2369 2355 2409 2381 2343 2403 2381 2396 2360 2398 2365 2380 2359 2325 2363 2349 2376 2355 2386 2395 2376 2388 2361 2378 2394 2402 2406 2396 2366 2395 2377 2378 2363 2371 2458 2542 2557 0 0 0 0 0 0 0
4070 3957 0 0 0 0 0 0 0 0 2702 2642 2464 2608 2641 2445 2434 2537 2483 2417 2456 2483 2473 2455 2412 2364 2435 2388 2529 2471 2443 2368 2441 2429 2399 2385 2416 2396 2342 2337 2371 2339 2378 2394 2390 2379 2386 2367 2353 2334 2362 2350 2340 2369 2368 2397 2381 2262 2412 2389 2354 2401 2332 2350 2361 2406 2385 2382 2376 2337 2360 2352 2350 2352 2330 2379 2320 2392 2333 2348 2365 2352 2398 2394 2330 2345 2413 2353 2388 2376 2387 2360 2393 2377 2344 2399 2359 2370 2361 2441 2625 2375 2347 2351 2351 2402 2325 2431 2419 2406 2407 2652 2580 0 0 0 0 0 0 0
4083 4057 3615 0 3467 0 0 0 0 0 0 2801 2787 0 0 0 2650 2679 2668 2480 2516 2475 2497 2578 2469 2464 2436 2418 0 2546 2533 2424 2427 2535 2440 2461 2521 2453 2461 2426 2382 2423 2440 2410 2408 2430 2376 2429 2411 2480 2424 2349 2347 2327 2374 2394 2439 2375 2478 2300 2370 2369 2338 2316 2412 2436 2410 2375 2356 2415 2391 2361 2377 2387 2403 2378 2351 2289 2464 2408 2439 2379 2346 2369 2412 2448 2457 2411 2395 2411 2387 2436 2382 2392 2406 2406 2373 2422 2403 2422 2526 2401 2484 2385 2416 2435 2424 2399 2699 2643 2563 2554 0 0 0 0 0 0 0 0
