452 0 0 2666 2903 0 0 0 0 0 0 0 0 0 0 2568 2444 2401 2506 0 2582 2503 2454 2402 2515 2462 0 0 0 0 0 0 0 0 0 0 0 0 0 0 2178 2154 2175 0 0 0 2177 0 0 2191 2179 0 0 0 0 0 2002 2157 0 0 0 2119 0 0 0 0 0 0 2148 2208 2192 2338 2284 2278 2219 2281 2273 2398 2291 2338 2254 0 2243 2074 2244 2238 862 711 672 600 621 596 665 650 687 538 621 595 0 0 0 0 0 0 0 0 0 0 0 0 0 0 0 0 0 0 0 0 0 0
0 0 0 2724 0 0 0 0 0 0 0 0 0 0 2509 2428 2454 2437 2349 2411 2408 2336 2369 2387 2361 2354 2343 0 0 0 2363 2297 2285 0 0 2214 2193 2227 2248 2234 2248 2287 2169 2156 0 0 0 2099 2193 2208 2225 2098 2075 2133 2167 2190 2190 2176 2167 2136 2209 2173 2142 0 2117 2218 2237 2235 2243 2295 2259 2263 2294 2290 2244 2284 2234 2281 0 2255 2330 2260 2291 2204 2226 2192 2230 1984 826 716 729 713 714 713 713 768 675 739 769 0 0 0 0 0 0 0 0 0 0 0 0 0 0 0 0 0 0 0 0 0
0 0 0 0 0 0 0 2532 2489 2537 2420 2512 2525 2437 2368 2360 2399 2396 2412 2336 2347 2372 2401 2327 2364 2269 2292 2340 2206 2315 2298 2305 2226 2209 2218 2258 2216 2248 2235 2228 2212 2175 2169 2212 2078 2148 2100 1942 1976 2197 2150 2100 2125 2205 2215 2109 2157 2154 2149 2185 2167 2208 2072 2025 2127 2177 2214 2260 2254 2264 2280 2247 2261 2259 2300 2240 2314 2368 0 2334 2246 2239 2225 2256 2184 2127 2222 2249 2230 1230 814 719 682 689 723 729 716 656 744 754 930 0 0 0 0 0 0 0 0 0 0 0 0 0 0 0 0 0 0 0
0 0 2909 2730 2931 2733 2708 2538 2484 2594 2599 2561 2559 2441 2423 2392 2405 2401 2409 2443 2380 2374 2461 2399 2363 2384 2365 2347 2363 2286 2282 2307 2296 2306 2292 2330 2304 2301 2274 2316 2297 2270 2215 2192 2222 2254 2230 2189 0 2102 2248 2224 2177 2236 2244 2168 2180 2284 2165 2201 2225 2269 2124 2273 2232 2218 2270 2283 2287 2304 2247 2286 2268 2310 2307 2297 2335 2454 2388 2410 2349 2429 2310 2295 2277 2303 2304 2282 2312 2296 2153 942 747 763 739 717 729 719 657 707 713 767 953 0 0 0 0 0 0 0 0 0 0 0 0 0 0 0 0 0
0 0 0 2608 2493 2543 2502 2449 2443 2403 2453 2451 2408 2411 2370 2362 2362 2375 2361 2365 2378 2347 2341 2355 2358 2358 2326 2317 2323 2286 2325 2280 2285 2316 2293 2252 2292 2266 2284 2239 2269 2247 2284 2232 2177 2139 2176 2166 2190 2201 2191 2148 2164 2171 2217 2174 2199 2199 2203 2208 2149 2103 2101 2224 2214 2216 2212 2244 2273 2293 2281 2292 2290 2282 2287 2294 2368 2411 2376 2388 2371 2358 2199 2272 2285 2281 2314 2271 2273 2300 2271 2220 1781 853 793 781 752 721 793 744 764 740 819 887 1013 0 0 0 0 0 0 0 0 0 0 0 0 0 0 0
0 0 0 2504 2453 2568 2376 2393 2427 2396 2430 2373 2419 2402 2403 2399 2377 2374 2381 2338 2359 2360 2311 2325 2292 2308 2334 2327 2314 2308 2300 2308 2306 2288 2299 2260 2293 2289 2238 2250 2287 2257 2236 2216 2176 2174 2222 2162 2184 2199 2158 2151 2123 2178 2231 2255 2226 2228 2179 2202 2121 2180 2181 2194 2210 2254 2261 2253 2267 2269 2278 2246 2260 2313 2251 2316 2329 2331 2363 2401 2362 2401 2247 2203 2272 2285 2289 2252 2281 2296 2282 2259 2305 2156 1090 812 800 777 769 786 764 722 706 757 836 869 950 0 0 0 0 0 0 0 0 0 0 0 0 0
0 2902 2658 2561 2525 2438 2429 2447 2438 2453 2480 2463 2407 2393 2403 2380 2390 2418 2431 2369 2401 2386 2396 2405 2394 2371 2397 2362 2359 2338 2328 2320 2332 2290 2321 2299 2311 2317 2301 2311 2315 2284 2265 2284 2223 2272 2213 2231 2230 2251 2251 2215 2205 2192 2214 2212 2209 2230 2241 2230 2242 2219 2264 2235 2288 2291 2304 2289 2305 2319 2307 2324 2318 2286 2303 2321 2365 2405 2436 2420 2430 2392 2319 2297 2312 2274 2302 2314 2320 2321 2337 2319 2316 2331 2271 2055 933 828 779 788 784 709 752 711 755 779 924 959 0 0 0 0 0 0 0 0 0 0 0 0
2985 3015 2773 2572 2508 2456 2437 2417 2411 2406 2387 2455 2376 2414 2402 2400 2399 2379 2382 2386 2396 2351 2382 2365 2359 2360 2342 2371 2331 2332 2345 2319 2298 2299 2299 2311 2286 2279 2290 2298 2260 2247 2244 2253 2207 2226 2217 2244 2192 2281 2234 2223 2226 2241 2178 2184 2172 2216 2219 2245 2222 2251 2265 2231 2284 2293 2276 2295 2297 2290 2318 2302 2293 2311 2317 2298 2330 2365 2386 2348 2358 2275 2303 2289 2292 2305 2328 2314 2309 2309 2322 2326 2330 2326 2297 2299 2251 1326 838 864 811 769 765 786 717 716 773 818 840 0 0 0 0 0 0 0 0 0 0 0
0 0 2624 2644 2485 2453 2454 2417 2359 2405 2395 2387 2405 2398 2394 2395 2354 2366 2371 2330 2344 2394 2363 2364 2325 2336 2366 2358 2344 2310 2307 2305 2338 2289 2324 2311 2287 2276 2297 2290 2251 2222 2223 2220 2245 2232 2153 2197 2209 2225 2257 2227 2227 2242 2228 2188 2163 2133 2156 2173 2236 2232 2236 2237 2258 2254 2241 2282 2276 2288 2300 2303 2273 2300 2290 2289 2278 2288 2289 2254 2259 2258 2323 2297 2313 2298 2291 2290 2314 2320 2317 2297 2304 2324 2278 2325 2314 2278 2102 979 847 871 790 769 789 757 781 723 784 905 944 0 0 0 0 0 0 0 0 0
0 0 0 2662 2542 2429 2449 2400 2431 2425 2427 2380 2369 2358 2399 2381 2363 2381 2375 2364 2376 2389 2352 2362 2345 2351 2348 2333 2339 2330 2334 2307 2314 2309 2295 2322 2292 2305 2281 2292 2264 2241 2220 2216 2210 2179 2184 2214 2190 2219 2254 2253 2232 2234 2212 2211 2190 2165 2105 2176 2216 2231 2242 2248 2279 2268 2260 2254 2271 2285 2278 2280 2288 2300 2291 2322 2295 2296 2269 2290 2294 2275 2294 2312 2310 2308 2293 2295 2315 2293 2318 2316 2326 2331 2307 2332 2333 2331 2312 2265 1618 899 845 807 783 742 778 717 723 769 797 875 1044 0 0 0 0 0 0 0
0 0 0 2822 2508 2481 2416 2424 2399 2419 2413 2411 2405 2374 2389 2382 2381 2379 2380 2351 2378 2362 2375 2376 2353 2347 2370 2338 2333 2341 2313 2338 2325 2332 2316 2307 2289 2286 2296 2292 2273 2242 2220 2206 2199 2178 2197 2217 2205 2226 2240 2240 2225 2239 2233 2185 2195 2133 2101 2150 2215 2233 2254 2245 2271 2277 2276 2281 2321 2303 2304 2313 2311 2309 2312 2314 2306 2308 2280 2315 2302 2302 2324 2303 2316 2318 2334 2321 2287 2315 2313 2325 2332 2297 2336 2322 2331 2329 2325 2326 2305 2206 1152 852 882 793 778 761 762 719 838 734 869 868 0 0 0 0 0 0
0 0 0 2671 0 2521 2440 2397 2425 2375 2384 2372 2353 2361 2368 2374 2360 2356 2343 2362 2358 2359 2351 2351 2327 2367 2360 2355 2333 2318 2304 2325 2312 2311 2287 2296 2288 2277 2271 2289 2227 2209 2197 2144 2126 2109 2143 2195 2174 2194 2240 2226 2208 2203 2187 2145 2131 2029 2110 2183 2184 2195 2234 2233 2253 2244 2261 2278 2275 2265 2283 2303 2291 2317 2310 2310 2297 2299 2291 2296 2290 2301 2305 2292 2303 2310 2303 2324 2315 2292 2310 2313 2313 2302 2320 2307 2323 2324 2311 2324 2305 2325 2274 1923 942 876 871 825 766 776 777 729 809 861 1028 0 0 0 0 0
2856 3271 0 2877 2534 0 2459 2431 2486 2394 2438 2383 2388 2384 2375 2385 2376 2371 2373 2364 2369 2368 2366 2354 2363 2340 2344 2339 2338 2336 2342 2322 2304 2312 2271 2302 2319 2292 2275 2274 2235 2217 2141 2167 2083 1994 2044 2083 2133 2188 2212 2206 2185 2176 2141 2062 1949 1984 2141 2182 2211 2214 2219 2236 2253 2262 2269 2265 2285 2278 2289 2300 2301 2310 2312 2306 2303 2288 2313 2294 2299 2308 2308 2296 2298 2297 2318 2319 2310 2293 2320 2332 2338 2341 2326 2317 2329 2323 2337 2311 2337 2328 2323 2296 2221 1265 876 800 780 770 774 724 733 721 741 793 0 0 0 0
2818 2724 2754 2962 2932 2478 2437 2689 2490 2425 2444 2412 2409 2384 2382 2380 2374 2387 2369 2371 2356 2354 2346 2367 2359 2357 2344 2351 2348 2344 2340 2329 2322 2324 2303 2308 2308 2295 2276 2278 2254 2207 2165 2117 1813 1504 1591 1865 2103 2181 2202 2208 2191 2143 2065 1772 1653 1968 2072 2136 2169 2241 2248 2265 2257 2258 2286 2287 2301 2307 2300 2301 2320 2292 2307 2311 2310 2308 2303 2315 2323 2313 2314 2330 2317 2325 2321 2328 2334 2339 2327 2319 2330 2335 2320 2341 2350 2331 2340 2339 2317 2335 2357 2322 2306 2300 2098 1025 907 833 775 779 723 701 737 799 0 0 0 0
2963 2600 2574 2610 2884 0 2600 2436 2504 0 2470 2418 2365 2382 2380 2380 2360 2378 2355 2368 2346 2351 2353 2358 2356 2363 2337 2356 2349 2343 2315 2311 2315 2299 2306 2311 2303 2276 2248 2254 2220 2159 2120 1778 584 374 390 835 1197 1736 2125 2156 2106 2087 1944 1303 1242 1497 1726 1976 2132 2225 2222 2240 2263 2238 2243 2261 2293 2273 2281 2294 2292 2297 2291 2296 2297 2295 2291 2293 2298 2309 2302 2306 2335 2310 2303 2312 2310 2330 2315 2305 2319 2324 2318 2339 2315 2335 2321 2327 2325 2320 2316 2336 2320 2321 2330 2257 1552 901 846 793 769 703 698 697 758 744 0 0
2762 2662 2645 2625 2701 2642 2627 2623 2508 2438 0 2572 2413 2389 2390 2392 2382 2374 2375 2362 2369 2350 2359 2360 2358 2336 2343 2347 2331 2338 2338 2324 2328 2308 2301 2289 2271 2271 2267 2221 2207 2084 1807 468 0 0 0 0 331 340 812 2093 2053 1978 1426 650 421 434 809 1438 1971 2183 2217 2233 2258 2259 2276 2280 2282 2285 2298 2294 2301 2302 2296 2312 2299 2307 2301 2304 2306 2309 2309 2315 2314 2314 2318 2311 2319 2315 2331 2335 2328 2312 2335 2336 2329 2323 2335 2340 2340 2326 2343 2334 2326 2316 2319 2333 2292 2130 1082 880 790 759 718 697 666 576 610 0
2623 2563 2655 2702 2630 2515 2550 2591 2681 2505 2470 2440 2640 2436 2378 2398 2389 2381 2352 2351 2354 2369 2361 2360 2346 2354 2355 2346 2331 2333 2321 2322 2336 2324 2289 2311 2281 2260 2237 2216 2144 1989 852 0 0 0 0 0 333 286 363 1796 1941 1453 464 0 0 0 0 345 339 863 2146 2218 2243 2287 2281 2292 2287 2287 2297 2296 2297 2303 2289 2306 2305 2310 2297 2314 2317 2310 2315 2310 2308 2311 2319 2323 2336 2324 2333 2332 2327 2317 2321 2328 2328 2338 2322 2329 2332 2331 2339 2331 2334 2322 2327 2333 2311 2307 2287 1601 889 892 786 726 713 704 711 724
2850 2572 2656 2729 2546 2576 2528 2554 2536 2576 2652 2501 2396 2546 2449 2401 2364 2358 2356 2373 2344 2353 2351 2346 2342 2342 2334 2328 2337 2320 2321 2328 2310 2300 2279 2272 2264 2259 2211 2176 2101 1587 381 0 0 0 0 0 324 296 366 1750 1571 615 0 0 0 0 0 331 332 324 1302 2183 2236 2250 2271 2281 2274 2292 2287 2290 2294 2294 2284 2284 2282 2296 2301 2296 2297 2302 2311 2306 2311 2304 2308 2307 2321 2329 2309 2324 2310 2318 2328 2337 2327 2330 2325 2322 2316 2316 2332 2318 2326 2329 2322 2324 2338 2329 2317 2300 2099 943 799 771 716 568 650 525
0 3028 2827 2592 2528 2525 2523 2542 2498 2479 2578 2563 2505 2419 2368 0 2391 2350 2346 2352 2355 2351 2351 2353 2330 2327 2336 2337 2324 2307 2314 2315 2309 2289 2280 2274 2263 2247 2214 2171 2018 685 0 0 0 0 0 0 325 319 435 1584 992 354 0 0 0 0 0 333 340 336 975 2155 2214 2231 2245 2272 2286 2282 2289 2276 2281 2282 2285 2288 2291 2285 2280 2277 2289 2295 2294 2303 2309 2312 2312 2293 2299 2308 2318 2328 2326 2320 2330 2319 2327 2324 2320 2335 2332 2325 2335 2329 2325 2323 2322 2330 2312 2314 2337 2306 2318 2254 1693 826 739 765 719 543
0 0 0 2729 2544 2544 2582 2539 2529 2486 2493 2598 2666 2588 2435 2411 2508 2425 2362 2368 2359 2366 2343 2364 2348 2338 2325 2334 2326 2328 2312 2324 2312 2309 2293 2276 2279 2243 2186 2125 1742 377 0 0 0 0 0 0 302 303 638 1234 429 0 0 0 0 0 0 331 310 326 1252 2084 2166 2194 2244 2280 2287 2277 2276 2270 2286 2275 2283 2297 2302 2294 2299 2293 2294 2278 2288 2308 2304 2311 2310 2312 2321 2326 2333 2328 2335 2328 2334 2320 2329 2336 2337 2340 2323 2337 2332 2330 2323 2323 2333 2333 2321 2335 2348 2350 2320 2337 2314 2237 0 733 0 567
2890 0 0 2889 2623 2656 2511 2509 2465 2509 2509 2513 2491 2578 2524 2429 2394 2368 2348 2361 2343 2345 2322 2333 2337 2336 2334 2326 2324 2326 2316 2299 2299 2282 2288 2273 2255 2211 2146 1961 840 0 0 0 0 0 0 333 302 327 1106 708 0 0 0 0 0 0 0 329 308 416 1605 1981 2076 2167 2216 2255 2276 2272 2260 2268 2284 2261 2268 2276 2303 2293 2298 2298 2283 2279 2287 2293 2293 2316 2309 2306 2308 2317 2329 2332 2318 2323 2315 2326 2324 2325 2331 2317 2337 2333 2330 2321 2336 2332 2332 2308 2331 2347 2329 2340 2325 2338 2338 2320 2313 0 708 709
2826 2676 2910 2951 2860 0 2642 2511 2502 2520 2546 2486 2481 2492 2524 2538 2512 2363 2358 2361 2417 2339 2329 2322 2319 2310 2313 2317 2319 2327 2300 2276 2301 2291 2263 2256 2242 2165 2049 1715 425 0 0 0 0 0 0 314 308 444 1123 383 0 0 0 0 0 0 329 327 321 677 1374 1762 2015 2135 2206 2229 2254 2261 2261 2272 2255 2267 2267 2261 2263 2293 2281 2297 2303 2280 2270 2282 2298 2290 2313 2314 2310 2315 2322 2318 2335 2330 2327 2328 2334 2326 2325 2334 2321 2329 2312 2319 2321 2320 2336 2319 2337 2345 2312 2341 2323 2349 2346 2313 2331 2344 0 0
2792 2667 2562 2705 3033 0 2820 2663 2608 2592 2539 2494 2528 2525 2498 2481 2495 2547 2362 2366 2366 0 2345 2326 2320 2301 2321 2328 2318 2316 2300 2298 2292 2291 2251 2236 2196 2109 1896 1133 0 0 0 0 0 0 328 300 314 677 674 0 0 0 644 450 0 0 328 311 325 0 380 574 800 1491 2159 2206 2245 2262 2257 2263 2254 2254 2254 2270 2272 2282 2286 2307 2296 2295 2295 2277 2278 2278 2309 2318 2327 2318 2318 2317 2327 2321 2331 2347 2335 2323 2332 2343 2328 2338 2339 2331 2330 2347 2334 2344 2334 2332 2338 2337 2328 2328 2345 2368 2378 2316 2409 0
2684 2587 2569 2588 2649 2633 2703 2715 2746 2589 2544 2489 2506 2522 2486 2469 2482 2466 2430 2392 2333 2298 2140 0 2289 2308 2309 2314 2302 2312 2289 2287 2298 2279 2222 2189 2122 1999 1502 485 0 0 0 0 0 0 320 303 342 761 382 0 0 0 641 0 0 329 325 323 0 0 0 0 355 335 1174 2196 2240 2239 2252 2262 2264 2279 2256 2263 2261 2275 2262 2282 2278 2301 2289 2259 2292 2275 2291 2317 2315 2321 2310 2319 2320 2331 2322 2324 2315 2333 2330 2335 2334 2324 2324 2324 2329 2325 2333 2337 2332 2318 2331 2328 2340 2340 2348 2325 2357 2331 2353 2289
2630 2608 2636 2841 2568 2536 2562 2586 0 2986 2728 2556 2494 2482 2466 2479 2483 2472 2461 2453 2440 2273 2261 2229 0 2239 2283 2277 2283 2297 2278 2267 2260 2242 2183 2114 2072 1744 1055 355 0 0 0 0 0 0 320 310 408 514 0 0 0 0 0 0 0 323 325 0 0 0 0 0 342 320 402 2025 2172 2213 2223 2249 2266 2264 2262 2271 2263 2247 2264 2267 2280 2298 2291 2273 2273 2282 2288 2306 2315 2311 2308 2288 2314 2320 2320 2329 2327 2307 2327 2333 2327 2311 2331 2327 2331 2330 2329 2333 2321 2332 2333 2327 2332 2347 2313 2311 2294 2296 2404 2379
2783 2627 2706 2759 2592 2555 2543 2606 2694 2714 2960 2720 2617 2486 2466 2477 2468 2478 2495 2474 2466 2416 0 2232 2294 2222 0 2283 2270 2261 2253 2254 2231 2216 2144 2025 1993 1562 601 0 0 0 534 0 0 0 300 301 475 0 0 0 405 605 0 0 330 307 0 0 0 0 0 0 346 314 358 1740 2140 2179 2211 2202 2251 2272 2275 2269 2277 2262 2246 2266 2279 2293 2307 2288 2301 2289 2288 2302 2314 2321 2317 2317 2318 2325 2330 2332 2331 2326 2342 2327 2335 2334 2333 2333 2337 2336 2338 2334 2347 2336 2331 2339 2350 2340 2338 2312 2389 2379 2400 2383
0 0 2690 2593 2537 2537 2541 2527 2522 2518 2552 0 2634 2524 2478 2455 2467 2456 2449 2442 2447 2412 2391 2327 2041 2166 2227 1200 2051 2251 2221 2186 2204 2169 2096 2011 1818 1204 393 0 0 681 633 616 0 328 307 329 431 0 0 487 693 678 0 0 330 326 0 0 0 0 0 0 345 345 467 1961 2090 2117 2142 2205 2231 2270 2275 2282 2272 2264 2247 2239 2264 2276 2290 2301 2302 2280 2265 2271 2305 2308 2300 2311 2303 2315 2326 2322 2326 2323 2332 2330 2327 2323 2343 2324 2335 2341 2337 2327 2333 2320 2345 2321 2329 2327 2335 2315 2310 2309 2317 2289
0 0 0 2806 2547 2533 2525 2516 2520 2522 2510 2549 2558 2590 2541 2522 2467 2461 2453 2415 2382 2407 2433 2426 2299 0 1604 2123 1947 2134 2094 2169 2136 2075 2016 1947 1703 903 0 0 591 675 627 585 0 322 307 345 0 0 0 693 688 665 0 0 315 0 0 0 580 0 0 0 339 345 1137 2077 2097 2059 2062 2173 2182 2223 2266 2279 2261 2259 2232 2238 2226 2230 2273 2299 2288 2273 2268 2261 2290 2310 2323 2319 2303 2298 2309 2316 2317 2322 2318 2310 2318 2334 2325 2346 2335 2317 2324 2332 2315 2333 2336 2333 2344 2328 2342 2342 2371 2308 2338 2351
3054 0 0 0 2826 2632 2511 2506 2542 2539 2511 2510 2510 2518 2669 0 2432 2479 2463 2442 2401 2409 2427 2437 2419 2176 0 1328 1881 2154 959 1320 2063 1990 1724 1696 1535 486 0 0 638 682 0 0 0 316 310 351 0 0 687 686 688 687 0 341 330 0 0 689 692 0 0 342 319 400 1907 2142 2139 2118 2149 2172 2165 2199 2241 2256 2280 2292 2265 2241 2238 2235 2264 2295 2313 2289 2288 2269 2282 2316 2324 2316 2310 2319 2312 2322 2328 2330 2328 2333 2327 2351 2343 2346 2333 2344 2342 2342 2337 2342 2322 2350 2335 2326 2347 2333 2329 2364 2378 2349
2785 2689 0 0 0 0 2604 2554 2513 2519 2557 2503 2491 2523 2453 0 2438 2557 2429 2396 2436 2416 2396 2351 2311 2363 2345 1922 1243 1120 1974 1551 695 1419 1688 1336 1028 344 0 0 485 575 516 0 0 317 306 0 0 645 696 696 694 655 0 311 0 0 0 688 693 0 0 322 322 892 2084 2154 2165 2191 2193 2169 2161 2147 2199 2225 2254 2285 2291 2275 2218 2228 2253 2282 2294 2309 2306 2279 2287 2274 2307 2313 2325 2317 2317 2325 2335 2336 2337 2330 2329 2337 2323 2336 2341 2356 2356 2333 2324 2345 2336 2335 2341 2335 2353 2320 2341 2368 2342 2330
2684 2599 2587 2679 0 0 2798 2603 2533 2481 2491 2511 2469 2469 2461 2448 2400 2404 0 0 2389 2402 2392 2293 2044 2272 2347 2337 2231 940 956 1379 1758 717 531 1017 717 0 0 0 554 0 0 0 0 307 330 0 0 656 696 694 688 0 0 326 0 0 695 695 573 0 351 329 354 1723 2095 2143 2194 2189 2193 2186 2175 2156 2175 2195 2215 2275 2277 2251 2249 2241 2220 2259 2268 2293 2311 2298 2281 2285 2299 2312 2314 2307 2302 2328 2322 2318 2325 2328 2334 2331 2328 2328 2323 2319 2336 2321 2332 2335 2319 2333 2309 2315 2348 2316 2361 2346 2307 2307
2658 2577 2618 2654 2605 2698 0 0 0 2596 2507 2502 2483 2467 2466 2479 2459 2438 0 0 0 2054 2264 2060 2278 2179 2101 2258 2207 2278 1802 832 843 1137 867 348 394 0 0 510 0 586 0 0 324 314 0 0 0 693 694 686 596 0 338 0 0 0 662 640 0 0 328 322 595 1840 2055 2138 2199 2201 2198 2205 2198 2200 2184 2177 2205 2206 2260 2290 2271 2258 2258 2245 2250 2292 2295 2292 2287 2287 2289 2317 2324 2321 2303 2315 2329 2334 2330 2339 2320 2331 2341 2332 2339 2328 2330 2338 2349 2348 2329 2363 2345 2326 2339 2346 2335 2340 2383 2374
2639 2757 2742 2619 2521 2532 2616 2987 0 0 2632 2520 2474 2501 2484 2490 2454 2440 2385 2252 862 580 442 682 2142 2221 2131 1648 2014 2306 2280 2100 706 528 626 673 352 0 0 586 686 682 0 0 319 314 0 0 689 687 693 685 0 0 331 0 0 507 623 0 0 337 314 332 1158 1601 1816 2028 2133 2201 2218 2228 2235 2200 2211 2187 2183 2191 2232 2292 2288 2277 2272 2255 2261 2288 2302 2314 2308 2298 2287 2303 2322 2317 2311 2313 2327 2338 2340 2338 2338 2339 2340 2353 2342 2348 2342 2354 2342 2341 2326 2352 2339 2340 2355 2310 2333 2355 2407 2386
2571 2585 2669 2585 2530 2514 2508 2521 2609 0 0 0 0 2472 2468 2458 2423 2365 2396 2356 1608 426 347 386 456 893 1811 1352 1894 1930 2047 2178 1640 897 457 413 0 0 590 646 687 685 0 0 315 330 0 659 690 694 687 0 0 0 0 0 0 595 0 0 0 336 331 466 1235 1290 1491 1814 2070 2167 2217 2243 2236 2214 2187 2168 2160 2149 2229 2272 2292 2268 2260 2254 2265 2256 2293 2307 2301 2304 2286 2302 2318 2307 2299 2309 2323 2332 2339 2319 2330 2331 2323 2345 2333 2337 2338 2335 2334 2345 2356 2318 2350 2345 2316 2345 2333 2298 2316 2337
0 3123 2740 2570 2569 2582 2540 2557 2511 2541 2777 0 0 2533 2494 2476 2399 2445 2388 2260 488 335 0 0 341 360 420 669 1746 1986 1493 1073 1891 1794 783 359 0 0 666 683 682 686 0 327 323 0 478 693 688 695 686 567 0 0 0 0 651 686 0 0 0 314 325 631 478 447 914 1244 1616 2082 2177 2221 2226 2234 2215 2189 2116 2142 2226 2257 2283 2291 2280 2267 2256 2270 2284 2294 2308 2295 2298 2294 2313 2309 2319 2321 2316 2342 2336 2335 2337 2344 2354 2335 2342 2345 2344 2341 2352 2337 2347 2342 2347 2343 2331 2316 2344 2382 2339 2372
4196 4222 0 2587 2570 2596 2580 2514 2528 2521 2504 2566 0 0 0 0 2393 2415 2359 2045 337 0 0 0 0 335 334 388 490 1780 1774 1287 1257 1058 798 355 0 0 682 694 690 685 0 318 322 0 688 692 696 692 692 0 0 0 0 0 691 696 0 0 331 318 366 0 0 0 0 362 370 1102 2125 2212 2247 2256 2240 2219 2144 2164 2221 2262 2287 2285 2289 2290 2261 2271 2294 2301 2310 2294 2290 2314 2309 2321 2326 2329 2337 2340 2339 2337 2340 2350 2348 2348 2342 2355 2345 2357 2346 2328 2357 2374 2346 2349 2340 2334 2351 2371 2372 2391
0 4361 0 0 2627 2606 2533 2482 2530 2504 2554 2481 2502 2423 0 280 0 2114 2236 1372 338 0 0 0 0 0 335 359 393 558 852 1858 1624 837 479 0 0 0 685 685 693 686 0 320 328 0 687 692 689 692 606 0 0 0 0 687 686 653 0 0 320 328 355 0 0 0 0 362 359 426 2010 2178 2223 2241 2239 2204 2171 2203 2203 2243 2259 2284 2289 2286 2258 2260 2279 2300 2303 2301 2284 2292 2304 2316 2306 2316 2311 2320 2335 2315 2328 2324 2335 2347 2328 2338 2331 2339 2347 2317 2341 2349 2327 2333 2334 2321 2370 2329 2334 2315
0 0 0 0 0 0 2541 2531 2554 2569 2515 2488 2495 2466 2407 0 386 426 594 483 344 0 0 0 0 0 0 316 328 341 448 781 1300 1107 407 0 0 0 685 684 681 669 0 321 0 0 691 691 692 688 0 0 0 0 0 660 696 0 0 336 304 331 0 0 0 0 0 350 339 396 1894 2128 2200 2230 2202 2221 2217 2220 2209 2228 2254 2281 2287 2283 2255 2261 2285 2286 2301 2311 2304 2309 2296 2318 2317 2324 2330 2348 2324 2329 2334 2341 2344 2340 2342 2336 2345 2344 2343 2340 2347 2351 2351 2339 2338 2357 2356 2370 2345 2355
0 0 2689 0 0 0 0 2599 2534 2554 2496 2485 2495 2482 2460 2407 0 407 417 356 337 0 0 0 0 0 0 332 318 309 356 453 515 527 354 0 0 526 685 689 669 689 0 0 0 568 692 696 693 0 0 0 0 0 607 0 0 0 0 325 312 0 0 0 610 0 0 346 329 541 1990 2127 2209 2209 2221 2244 2250 2237 2227 2236 2257 2273 2306 2286 2296 2273 2292 2302 2319 2310 2314 2301 2308 2317 2325 2329 2328 2328 2327 2340 2340 2329 2355 2363 2351 2334 2342 2337 2315 2363 2345 2351 2365 2326 2352 2367 2339 2329 2369 2334
2486 0 0 2478 2590 0 0 0 0 2564 2507 2460 2456 2426 2434 2420 2400 1114 405 339 347 0 0 0 0 0 0 0 321 310 303 344 397 353 0 0 0 681 683 688 688 686 681 0 0 674 688 690 693 0 0 0 674 664 674 660 0 0 339 308 324 0 0 694 618 0 0 328 349 1012 2024 2104 2145 2181 2229 2254 2228 2216 2211 2218 2261 2257 2281 2277 2278 2271 2281 2295 2301 2311 2304 2296 2310 2317 2324 2320 2329 2332 2326 2329 2338 2338 2334 2339 2338 2336 2348 2337 2326 2343 2334 2332 2344 2325 2339 2312 2337 2340 2324 2336
2494 2550 2466 2848 2436 2461 0 0 0 0 2523 2463 2454 2453 2415 2408 2383 2107 984 401 348 0 0 0 0 0 0 0 314 293 326 401 351 337 0 0 0 685 685 679 684 692 689 687 686 688 696 690 0 0 0 0 699 694 701 692 0 0 326 322 0 0 675 696 531 0 347 329 412 1707 2019 2122 2133 2188 2255 2261 2237 2240 2210 2218 2236 2259 2281 2276 2273 2276 2278 2297 2295 2298 2304 2311 2308 2318 2313 2326 2327 2328 2321 2332 2335 2341 2341 2332 2336 2332 2334 2328 2316 2349 2345 2316 2344 2320 2349 2335 2316 2334 2324 2321
2451 2543 2484 2472 2428 2512 2647 2333 0 0 0 0 2546 2464 2444 2363 2169 0 2096 847 340 0 0 0 0 0 0 0 313 299 318 486 367 0 0 0 682 679 688 683 670 690 690 686 673 689 695 691 0 0 0 692 694 693 695 606 0 340 313 332 0 0 693 691 0 0 332 316 890 1992 2080 2086 2108 2189 2241 2257 2259 2237 2238 2215 2234 2258 2287 2287 2275 2281 2293 2297 2287 2307 2311 2312 2316 2316 2318 2327 2323 2344 2329 2345 2327 2338 2342 2345 2343 2350 2348 2354 2349 2337 2353 2341 2346 2345 2354 2367 2333 2356 2398 2324
2454 2401 2461 2426 2435 2467 0 0 2362 0 0 89 0 2437 2431 2393 0 1297 1488 793 349 0 0 0 0 0 0 0 317 291 319 358 0 0 0 666 683 680 683 687 684 683 690 691 692 700 691 665 0 0 0 696 698 696 686 0 0 320 332 0 0 694 663 602 0 349 322 420 1784 2051 2073 2049 2112 2183 2247 2259 2245 2244 2232 2218 2239 2244 2280 2274 2282 2287 2301 2294 2301 2308 2305 2315 2315 2322 2312 2319 2325 2337 2337 2336 2333 2334 2339 2345 2339 2344 2338 2356 2339 2338 2323 2336 2352 2359 2330 2336 2318 2344 2310 2348
2422 2401 2416 2427 2390 2406 2411 2407 0 2319 2227 373 338 0 0 0 2205 2101 909 511 346 0 0 0 0 0 0 0 311 300 318 368 0 0 0 676 683 686 684 694 690 687 694 690 691 687 690 686 0 0 665 698 694 696 0 0 335 322 0 0 693 694 637 0 0 330 344 1064 2034 2036 2050 2063 2148 2260 2237 2250 2252 2237 2230 2225 2231 2242 2273 2268 2282 2283 2288 2308 2300 2296 2287 2310 2312 2310 2310 2315 2320 2332 2335 2336 2339 2336 2332 2344 2341 2335 2328 2328 2337 2325 2323 2327 2322 2329 2364 2334 2313 2338 2380 2342
2414 2442 2450 2427 2415 2411 2424 2411 2401 0 0 2390 0 205 315 235 352 1617 1536 465 345 0 0 0 0 0 0 0 311 298 325 0 0 0 0 650 684 665 681 668 684 667 691 685 688 689 667 696 675 622 628 691 640 0 0 345 316 0 0 696 694 701 0 0 341 320 474 1858 2038 2050 2024 2091 2164 2195 2244 2248 2261 2246 2245 2237 2233 2265 2283 2275 2290 2296 2306 2304 2324 2303 2298 2311 2317 2308 2317 2328 2333 2327 2330 2341 2336 2329 2345 2344 2336 2351 2329 2343 2340 2356 2352 2344 2363 2357 2352 2363 2342 2370 2368 2343
2442 2439 2422 2393 2399 2382 2378 2381 2382 2347 2352 7 0 2223 674 315 341 358 493 428 343 0 0 0 0 0 0 0 318 316 0 0 0 0 621 683 684 683 683 691 687 688 691 697 696 689 692 689 696 697 695 690 0 0 0 313 332 0 0 696 660 555 0 0 323 358 1286 1998 2072 2036 2079 2149 2158 2186 2220 2250 2257 2251 2234 2219 2232 2267 2287 2281 2287 2297 2302 2324 2310 2302 2288 2302 2317 2322 2319 2320 2328 2340 2343 2335 2332 2343 2327 2332 2346 2339 2315 2340 2348 2335 2329 2329 2355 2335 2341 2345 2310 2342 2381 2362
2451 2411 2424 2395 2398 2409 2383 2368 2348 2384 2339 2332 0 289 2196 1023 338 351 342 347 0 0 450 0 0 0 0 0 305 323 0 0 0 0 558 679 679 668 682 683 0 691 688 692 685 688 692 692 673 692 692 694 671 0 336 328 0 0 0 691 604 0 0 339 331 547 1902 2061 2018 2029 2089 2140 2159 2186 2222 2245 2248 2234 2220 2237 2240 2259 2277 2292 2296 2290 2310 2320 2302 2287 2284 2306 2309 2305 2319 2316 2342 2334 2332 2321 2336 2331 2339 2343 2334 2326 2331 2331 2345 2320 2342 2333 2341 2347 2340 2342 2336 2343 2353 2341
2472 2465 2439 2422 2410 2408 2392 2379 2364 2362 2362 2365 2300 2321 167 596 1060 407 308 340 0 0 0 0 0 0 0 0 323 0 0 0 0 0 636 683 690 698 694 691 693 688 692 708 690 697 695 691 695 696 701 697 697 0 324 0 0 607 668 693 0 0 341 319 338 1505 2038 2089 2032 2079 2096 2158 2183 2205 2227 2246 2227 2236 2220 2241 2252 2277 2302 2293 2296 2317 2325 2313 2319 2298 2303 2304 2316 2323 2312 2336 2337 2337 2357 2352 2336 2351 2359 2346 2344 2348 2353 2344 2340 2361 2341 2353 2340 2377 2342 2348 2375 2420 2362 2399
2499 2417 2434 2399 2404 2397 2379 2392 2382 2346 2349 2345 2318 2312 2243 1247 747 663 498 342 0 0 0 0 0 0 0 0 0 0 0 0 0 655 686 689 687 688 696 698 691 697 696 700 699 698 699 701 704 699 697 699 706 0 338 0 699 711 704 544 0 0 341 325 792 2020 2082 2057 2059 2107 2136 2164 2191 2202 2217 2245 2239 2227 2217 2235 2252 2275 2280 2286 2307 2309 2323 2320 2319 2301 2300 2307 2316 2313 2321 2328 2330 2329 2343 2337 2338 2339 2338 2341 2340 2349 2351 2351 2342 2367 2345 2340 2331 2357 2337 2341 2346 2343 2333 2344
2423 2422 2392 2391 2391 2374 2376 2390 2370 2353 2329 2330 2316 2278 2222 2017 1158 428 389 359 0 0 0 0 0 0 0 0 0 0 0 0 512 0 685 683 680 687 693 687 697 699 703 704 698 696 705 699 705 699 702 699 699 0 0 704 701 707 707 0 0 339 331 495 1839 2054 2099 2084 2071 2141 2151 2176 2178 2202 2228 2243 2238 2230 2223 2229 2250 2265 2278 2296 2310 2316 2322 2323 2299 2308 2304 2304 2316 2309 2329 2339 2335 2337 2346 2332 2326 2324 2329 2341 2339 2342 2332 2355 2346 2347 2342 2325 2318 2349 2337 2317 2328 2322 2353 2346
2445 2442 2422 2421 2402 2390 2404 2388 2364 2363 2334 2314 2324 2318 2262 2070 1508 1032 433 0 0 0 0 0 0 0 0 0 0 0 0 611 651 686 687 683 687 684 688 692 698 690 695 705 698 701 695 698 704 701 705 695 700 643 672 701 706 709 702 0 345 317 346 1388 2012 2088 2151 2135 2125 2103 2123 2186 2200 2221 2248 2253 2246 2227 2228 2245 2262 2286 2299 2302 2325 2324 2318 2317 2310 2303 2318 2306 2308 2319 2330 2335 2339 2335 2346 2337 2350 2329 2332 2340 2341 2338 2333 2339 2350 2325 2337 2321 2341 2349 2328 2328 2331 2363 2359 2409
2429 2457 2420 2405 2384 2409 2405 2372 2369 2358 2343 2331 2348 2315 2256 2125 1704 927 391 0 0 0 0 0 0 0 0 0 0 0 631 681 686 687 685 686 689 685 694 688 690 692 689 690 698 704 695 698 699 700 696 705 701 692 703 707 696 700 0 0 330 321 667 1914 2061 2130 2159 2170 2140 2072 2128 2177 2214 2243 2263 2254 2230 2240 2252 2256 2271 2297 2307 2312 2312 2313 2338 2322 2324 2305 2306 2313 2331 2329 2318 2322 2335 2352 2345 2332 2352 2342 2342 2343 2344 2336 2345 2328 2335 2356 2361 2346 2341 2345 2350 2353 2313 2370 2394 2432
2393 2453 2419 2415 2382 2382 2379 2360 2365 2352 2346 2327 2313 2298 2256 2133 1930 865 342 0 0 0 0 0 0 0 0 0 0 673 678 680 682 689 689 693 689 693 689 692 703 695 691 694 691 702 699 704 708 711 697 693 701 705 699 703 702 0 0 338 331 360 1466 1962 2117 2141 2158 2168 2137 2112 2124 2162 2206 2242 2256 2252 2243 2239 2243 2250 2280 2304 2307 2322 2322 2319 2327 2319 2316 2302 2307 2324 2325 2324 2321 2327 2338 2333 2347 2341 2341 2353 2327 2334 2333 2337 2347 2335 2340 2335 2333 2339 2330 2338 2319 2335 2346 2356 2358 2370
2410 2430 2441 2386 2403 2376 2380 2383 2371 2369 2351 2333 2303 2307 2266 2131 1870 769 0 0 0 0 0 0 0 0 0 0 639 677 682 687 684 688 691 686 694 691 693 695 687 737 696 694 692 704 692 700 697 698 699 695 699 695 707 694 0 0 0 331 330 696 1893 2065 2115 2155 2135 2151 2155 2153 2204 2218 2209 2211 2250 2257 2256 2242 2262 2277 2291 2310 2327 2333 2326 2325 2318 2330 2310 2298 2316 2341 2330 2321 2319 2322 2340 2338 2343 2322 2338 2337 2343 2336 2342 2345 2332 2355 2349 2329 2337 2336 2339 2350 2358 2324 2328 2354 2339 2382
2394 2410 2451 2428 2379 2397 2391 2373 2378 2378 2344 2345 2310 2319 2274 2166 1848 706 0 0 0 0 0 0 0 0 0 0 558 681 686 687 684 685 681 691 690 684 691 694 696 697 694 698 698 694 698 695 701 696 702 712 698 699 700 608 0 0 338 326 356 1493 1922 2040 2089 2147 2130 2155 2158 2171 2210 2248 2266 2263 2247 2250 2252 2256 2279 2295 2301 2317 2323 2330 2322 2330 2342 2326 2314 2320 2331 2333 2321 2332 2332 2340 2336 2353 2348 2348 2341 2351 2336 2338 2345 2340 2361 2347 2361 2338 2345 2341 2353 2340 2320 2355 2378 2379 2348 2395
2416 2399 2389 2383 2398 2388 2371 2384 2352 2368 2352 2309 2267 2282 2221 2121 1828 704 0 0 0 0 0 0 0 0 0 0 576 623 675 690 689 687 687 687 693 691 691 698 0 716 701 706 0 703 699 702 697 700 708 707 705 700 700 0 0 0 329 321 586 1787 1940 2017 2123 2135 2103 2152 2158 2190 2204 2265 2289 2288 2267 2240 2220 2248 2266 2294 2314 2318 2316 2335 2331 2318 2337 2331 2316 2316 2326 2324 2312 2301 2317 2333 2340 2332 2340 2344 2339 2327 2342 2337 2330 2341 2344 2332 2327 2335 2349 2345 2318 2342 2317 2324 2324 2368 2340 2301
2435 2409 2437 2395 2399 2392 2392 2370 2359 2355 2337 2337 2294 2271 2208 2040 1736 704 0 0 0 0 0 0 0 0 0 539 591 587 597 672 686 684 682 693 687 687 689 698 686 692 692 697 690 693 697 696 695 700 694 698 698 700 685 0 0 334 319 339 915 1845 1918 2055 2129 2098 2066 2100 2154 2199 2243 2284 2294 2276 2274 2249 2224 2238 2267 2287 2317 2323 2322 2319 2334 2333 2338 2341 2319 2320 2328 2344 2333 2317 2331 2334 2344 2353 2345 2346 2333 2342 2346 2337 2345 2341 2352 2336 2329 2352 2342 2345 2331 2352 2354 2344 2328 2370 2371 2356
2464 2441 2412 2430 2405 2413 2388 2370 2377 2343 2351 2310 2309 2289 2225 2079 1708 779 0 0 0 0 0 0 0 0 620 673 679 652 605 672 679 681 688 689 683 684 695 693 694 689 0 688 696 0 701 701 693 696 698 703 697 699 675 0 0 337 307 351 1388 1848 1972 2129 2116 2079 2089 2134 2188 2224 2258 2291 2293 2276 2258 2242 2247 2268 2284 2288 2316 2328 2327 2336 2333 2324 2335 2341 2336 2330 2335 2338 2331 2332 2335 2335 2358 2343 2353 2356 2339 2348 2350 2344 2338 2337 2337 2364 2366 2359 2345 2359 2338 2362 2353 2380 2360 2318 2351 2392
2427 2428 2397 2405 2380 2373 2379 2349 2366 2341 2325 2303 2256 2248 2202 2087 1779 788 323 0 0 0 0 0 0 460 667 674 674 676 677 614 671 685 684 685 687 688 685 694 686 690 694 710 719 693 697 694 694 694 694 702 700 694 431 0 0 321 319 490 1613 1886 2030 2109 2063 2088 2119 2168 2196 2237 2283 2290 2299 2269 2249 2232 2239 2272 2286 2288 2305 2315 2326 2315 2326 2332 2331 2326 2331 2326 2334 2333 2322 2318 2321 2341 2322 2347 2335 2341 2346 2341 2346 2336 2351 2343 2337 2339 2330 2341 2351 2346 2330 2352 2331 2345 2310 2345 2333 2344
2458 2424 2398 2388 2397 2371 2374 2375 2374 2354 2326 2322 2281 2243 2220 2098 1687 855 332 0 0 0 0 0 0 0 671 671 674 681 673 669 648 681 683 681 688 683 685 703 696 690 694 689 692 688 694 692 700 706 693 700 695 567 0 0 327 325 328 1078 1674 1997 2111 2078 2110 2115 2159 2209 2233 2271 2287 2295 2292 2261 2255 2260 2257 2277 2291 2308 2316 2310 2322 2327 2333 2334 2337 2333 2331 2326 2340 2327 2338 2329 2336 2337 2356 2341 2337 2343 2333 2340 2330 2335 2336 2334 2347 2330 2344 2326 2339 2328 2359 2343 2369 2337 2343 2340 2383 2393
2479 2416 2410 2398 2399 2381 2385 2368 2383 2362 2355 2334 2305 2248 2215 2049 1768 890 349 0 0 0 0 0 457 564 639 669 679 676 677 673 620 676 681 681 680 684 694 685 688 690 689 691 691 688 696 691 689 696 683 695 691 0 0 0 326 307 455 1458 1872 2099 2143 2125 2159 2180 2204 2243 2259 2283 2297 2299 2279 2265 2241 2262 2277 2289 2305 2316 2331 2328 2331 2337 2342 2341 2337 2350 2335 2332 2344 2342 2342 2342 2344 2337 2353 2336 2341 2341 2343 2357 2344 2350 2337 2345 2349 2348 2341 2350 2347 2362 2359 2350 2334 2361 2344 2355 2382 2434
2420 2427 2417 2384 2383 2379 2386 2365 2364 2362 2351 2338 2332 2264 2183 2033 1766 966 344 0 0 0 0 0 0 461 594 676 668 687 679 683 679 654 679 677 678 678 0 680 686 690 685 691 692 686 702 696 692 692 697 693 520 0 0 327 314 316 1069 1646 2051 2156 2178 2160 2186 2198 2230 2246 2277 2290 2295 2296 2276 2246 2253 2269 2273 2289 2308 2328 2322 2322 2336 2341 2331 2344 2341 2331 2328 2330 2337 2342 2338 2351 2338 2346 2336 2341 2356 2340 2346 2335 2353 2344 2348 2334 2340 2335 2342 2332 2337 2326 2334 2345 2370 2339 2359 2372 2358 2361
2432 2401 2407 2404 2392 2384 2389 2350 2356 2359 2344 2330 2332 2270 2191 2107 1825 1119 399 0 0 0 0 0 0 0 0 670 673 0 672 673 677 643 677 677 0 0 0 692 687 685 685 691 698 698 700 690 690 698 696 669 0 0 0 322 318 524 1597 1977 2158 2185 2161 2194 2215 2236 2253 2268 2273 2295 2301 2288 2274 2267 2265 2263 2291 2307 2316 2328 2317 2319 2331 2338 2334 2322 2334 2352 2337 2337 2329 2337 2339 2346 2340 2346 2339 2337 2338 2347 2344 2343 2337 2337 2346 2342 2322 2337 2344 2337 2335 2351 2326 2340 2359 2347 2349 2327 2316 2355
2423 2464 2438 2419 2407 2400 2414 2380 2391 2353 2357 2366 2342 2299 2256 2160 2025 1277 501 0 0 0 0 0 0 0 0 543 671 669 675 673 674 635 679 683 0 0 0 684 658 682 686 689 691 687 696 664 655 688 689 413 0 0 311 297 342 1301 1921 2142 2207 2209 2205 2230 2253 2267 2272 2268 2294 2292 2310 2288 2277 2266 2286 2294 2301 2304 2318 2327 2333 2333 2331 2344 2338 2339 2343 2338 2331 2333 2335 2346 2349 2342 2344 2346 2356 2337 2352 2340 2350 2344 2349 2345 2357 2352 2350 2339 2361 2360 2340 2362 2360 2355 2378 2334 2366 2370 2384 2445
2469 2422 2420 2389 2391 2401 2408 2383 2379 2345 2359 2343 2328 2299 2261 2168 2083 1420 662 0 0 0 0 0 0 0 0 0 676 670 681 674 654 670 680 681 700 0 0 0 683 687 694 694 694 689 697 692 696 692 467 0 0 318 318 301 730 1861 2100 2187 2222 2223 2222 2255 2267 2257 2262 2286 2295 2307 2308 2285 2264 2271 2280 2297 2305 2311 2329 2330 2328 2334 2328 2333 2339 2333 2341 2342 2339 2339 2338 2337 2349 2350 2345 2341 2345 2339 2341 2339 2342 2338 2347 2345 2341 2342 2357 2342 2347 2355 2345 2318 2350 2357 2344 2363 2351 2377 2418 2349
2438 2423 2426 2410 2397 2392 2384 2371 2387 2355 2344 2350 2308 2316 2269 2160 2090 1754 855 332 0 0 0 0 0 0 0 527 670 671 678 676 676 681 674 681 0 715 684 686 690 686 688 682 688 689 697 686 695 682 0 0 0 321 316 427 1603 2024 2151 2206 2235 2227 2247 2248 2264 2256 2258 2289 2302 2308 2298 2279 2266 2271 2278 2300 2306 2312 2321 2328 2328 2322 2330 2333 2343 2337 2344 2332 2336 2337 2325 2335 2336 2348 2347 2344 2337 2336 2338 2334 2351 2351 2345 2339 2333 2340 2348 2341 2347 2351 2337 2369 2346 2349 2319 2349 2333 2336 2357 2414
2429 2442 2439 2412 2415 2390 2384 2380 2366 2368 2369 2358 2312 2300 2307 2214 2030 1731 901 324 0 0 0 0 0 0 0 630 666 669 673 674 674 672 682 677 681 679 680 688 686 683 684 692 686 690 694 696 610 0 0 0 316 295 334 1113 1881 2149 2189 2220 2234 2243 2236 2227 2256 2262 2271 2305 2313 2299 2306 2287 2293 2293 2300 2299 2303 2320 2328 2321 2330 2338 2344 2334 2335 2329 2335 2349 2344 2351 2353 2347 2361 2348 2351 2352 2368 2360 2339 2332 2355 2344 2342 2355 2353 2344 2340 2362 2359 2350 2355 2343 2359 2361 2350 2378 2395 2338 2358 2461
2402 2416 2420 2407 2393 2405 2370 2381 2371 2376 2361 2318 2326 2299 2284 2243 2108 1743 947 425 0 0 0 0 0 0 0 0 530 668 548 643 673 673 676 680 686 684 681 687 684 683 684 692 688 691 688 654 0 0 0 315 311 307 657 1623 1991 2164 2209 2219 2218 2225 2197 2221 2241 2253 2285 2303 2313 2312 2290 2288 2291 2290 2297 2295 2307 2316 2335 2340 2331 2346 2330 2341 2327 2338 2338 2342 2344 2347 2351 2342 2351 2344 2335 2356 2340 2339 2349 2348 2334 2358 2344 2355 2349 2341 2342 2341 2347 2338 2343 2317 2346 2360 2353 2371 2354 2311 2333 2386
2478 2406 2422 2403 2396 2383 2397 2388 2379 2377 2365 2345 2323 2329 2302 2264 2159 1700 1006 555 315 0 0 0 0 0 0 0 0 0 450 645 673 675 677 678 677 676 679 681 688 683 687 680 683 678 682 0 0 0 0 309 295 409 1351 1835 2101 2186 2226 2222 2206 2217 2215 2214 2247 2273 2299 2303 2301 2310 2294 2300 2302 2279 2292 2295 2312 2326 2322 2328 2322 2336 2332 2340 2339 2345 2348 2340 2341 2349 2333 2347 2333 2329 2351 2344 2369 2338 2351 2350 2340 2350 2346 2349 2343 2344 2357 2368 2351 2349 2366 2342 2348 2331 2374 2373 2376 2323 2360 2415
2435 2438 2409 2417 2409 2384 2401 2392 2371 2392 2359 2357 2354 2313 2323 2295 2236 1954 1012 577 323 0 0 0 0 0 0 0 0 0 568 673 673 674 678 681 680 674 548 676 685 681 683 686 648 595 472 0 0 0 319 290 323 1112 1837 2070 2161 2216 2220 2223 2212 2227 2229 2242 2266 2291 2306 2323 2321 2312 2307 2297 2306 2299 2313 2310 2324 2327 2342 2338 2341 2329 2338 2338 2344 2348 2349 2352 2353 2376 2419 2391 2367 2351 2389 2351 2373 2349 2368 2360 2352 2356 2349 2354 2355 2355 2353 2349 2354 2356 2367 2366 2345 2366 2377 2391 2376 2376 2363 2383
2465 2429 2426 2400 2397 2396 2402 2382 2394 2383 2368 2349 2339 2343 2327 2307 2263 2086 1133 565 488 334 0 0 0 0 0 0 0 0 465 532 646 674 675 676 677 568 0 0 443 549 576 487 417 437 0 0 0 315 301 317 771 1809 2060 2157 2233 2237 2226 2209 2223 2243 2245 2279 2288 2296 2311 2310 2316 2308 2311 2293 2293 2294 2309 2311 2332 2331 2328 2343 2343 2345 2344 2341 2349 2339 2345 2352 2377 2429 2424 2454 2424 2350 2343 2374 2374 2350 2353 2357 2350 2344 2352 2335 2358 2362 2353 2350 2345 2374 2350 2355 2346 2361 2354 2333 2364 2355 2400 2370
2459 2438 2421 2402 2410 2388 2394 2390 2385 2363 2382 2363 2354 2331 2297 2311 2278 2102 1124 718 677 425 316 0 0 0 0 0 0 0 400 336 333 338 0 635 669 591 424 0 394 362 0 0 0 0 0 0 0 306 308 476 1706 2024 2189 2233 2253 2240 2250 2257 2248 2265 2271 2288 2315 2313 2317 2312 2324 2291 2294 2263 2290 2285 2307 2325 2328 2322 2339 2329 2341 2349 2344 2337 2343 2343 2342 2346 2360 2429 2442 2438 2433 2389 2403 2341 2341 2355 2363 2349 2346 2332 2354 2357 2347 2354 2351 2337 2349 2348 2358 2342 2357 2357 2361 2349 2369 2354 2379 2416
2498 2428 2439 2402 2399 2399 2398 2392 2399 2385 2388 2374 2356 2334 2324 2295 2292 2165 1272 942 742 466 326 0 0 0 0 0 0 0 0 0 0 0 0 382 490 639 552 489 469 0 0 0 0 0 0 0 311 296 388 1432 1952 2173 2214 2251 2271 2268 2268 2269 2273 2297 2282 2314 2319 2324 2327 2316 2311 2303 2283 2271 2276 2290 2324 2319 2340 2338 2345 2345 2352 2341 2343 2349 2344 2349 2346 2391 2438 2421 2426 2449 2427 2407 2423 2432 2383 2361 2357 2359 2376 2377 2347 2360 2352 2351 2366 2358 2345 2338 2361 2343 2360 2380 2386 2355 2388 2453 2393 2449
2485 2435 2430 2411 2408 2424 2398 2405 2386 2417 2363 2378 2369 2356 2317 2302 2318 2183 2040 1708 927 453 328 0 0 0 0 0 0 0 0 0 0 0 0 0 0 406 421 475 429 0 0 0 0 0 317 313 298 347 1188 1777 2081 2205 2249 2270 2277 2281 2282 2284 2282 2296 2299 2320 2318 2327 2331 2337 2307 2281 2283 2289 2310 2316 2328 2343 2346 2346 2343 2334 2349 2349 2347 2352 2349 2345 2356 2422 2446 2449 2440 2452 2488 2453 2457 2465 2498 2384 2383 2378 2396 2396 2372 2359 2363 2374 2363 2354 2351 2375 2373 2371 2374 2387 2360 2377 2366 2392 2462 2465
2472 2478 2427 2395 2402 2387 2414 2390 2401 2386 2372 2372 2338 2347 2308 2261 2270 2149 2173 2021 1320 398 329 0 0 0 0 0 0 0 0 0 0 0 0 0 0 0 0 0 0 0 0 0 0 317 310 303 356 1210 1733 1871 2096 2189 2251 2263 2264 2260 2255 2264 2275 2289 2292 2302 2307 2309 2308 2310 2307 2283 2291 2298 2322 2327 2330 2321 2315 2336 2334 2336 2349 2339 2336 2342 2341 2337 2305 2423 2446 2436 2435 2416 2440 2445 2440 2447 2439 2408 2390 2371 2363 2360 2381 2345 2340 2349 2347 2354 2350 2328 2368 2354 2344 2322 2317 2344 2324 2347 2389 2439
2452 2463 2452 2439 2434 2424 2422 2406 2406 2381 2383 2377 2360 2348 2322 2294 2144 2137 2179 2018 1164 359 331 0 0 0 0 0 0 0 0 0 0 0 0 0 0 0 0 0 0 0 0 0 0 312 305 353 1179 1819 1840 2107 2169 2202 2215 2224 2257 2240 2250 2243 2267 2273 2298 2314 2310 2309 2310 2303 2295 2298 2309 2325 2331 2331 2341 2340 2333 2334 2342 2338 2354 2349 2355 2334 2341 2339 2378 2414 2443 2460 2428 2429 2425 2441 2427 2413 2443 2452 2453 2454 2431 2373 2348 2384 2372 2363 2350 2332 2373 2348 2339 2353 2358 2365 2361 2371 2365 2377 2360 2420
2524 2504 2441 2488 2438 2377 2430 2428 2420 2389 2382 2366 2380 2384 2332 2307 2234 2142 2109 1944 844 339 0 0 0 0 0 0 0 0 0 0 0 0 0 0 0 0 0 0 0 0 0 0 313 293 311 1063 1891 1923 2028 2199 2240 2252 2233 2255 2229 2234 2251 2268 2266 2299 2323 2317 2314 2338 2321 2319 2311 2319 2335 2336 2339 2350 2345 2338 2360 2348 2353 2338 2353 2351 2356 2356 2361 2438 2449 2451 2439 2480 2474 2454 2443 2448 2449 2434 2482 2440 2464 2431 2523 2458 2400 2403 2399 2396 2370 2358 2389 2360 2351 2363 2379 2365 2345 2412 2404 2470 2542 2510
2502 2469 2464 2452 2463 2443 2409 2395 2405 2379 2384 2362 2349 2351 2339 2308 2247 2132 1915 1622 614 334 0 0 0 0 0 0 0 0 0 0 0 0 0 0 0 0 0 0 0 0 0 311 304 320 772 1764 1885 1921 2151 2189 2217 2218 2255 2221 2237 2215 2245 2263 2280 2298 2294 2320 2314 2322 2320 2321 2318 2319 2330 2332 2343 2344 2330 2345 2326 2344 2351 2336 2347 2334 2354 2331 2375 2423 2449 2434 2421 2384 2454 2449 2441 2485 2457 2430 2437 2443 2480 2465 2438 2441 2488 2420 2364 2347 2368 2398 2347 2371 2341 2378 2372 2379 2383 2394 2468 2371 2377 2482
2582 2558 2470 2403 2452 2402 2468 2453 2400 2407 2404 2410 2370 2316 2279 2312 2292 2179 1803 1293 422 323 0 0 0 0 0 0 0 0 0 0 0 0 0 0 0 0 0 0 0 0 318 309 290 466 1653 1879 1894 2034 2175 2228 2227 2239 2276 2263 2288 2273 2246 2267 2297 2322 2308 2325 2323 2335 2330 2331 2332 2330 2328 2332 2346 2352 2344 2356 2353 2347 2348 2355 2332 2344 2339 2379 2460 2425 2469 2444 2440 2442 2460 2486 2507 2484 2488 2462 2449 2483 2483 2415 2477 2447 2455 2501 2448 2463 2387 2384 2449 2394 2369 2355 2356 2429 2377 2436 2461 2470 2507 2520
2712 2610 2513 2485 2485 2462 2418 2416 2429 2433 2401 2384 2373 2354 2311 2316 2313 2193 1242 1021 371 323 0 0 0 0 0 0 0 0 0 0 0 0 0 0 0 0 0 0 0 322 311 281 345 1227 1927 1875 1989 2129 2207 2206 2245 2240 2219 2264 2273 2268 2282 2278 2310 2321 2296 2318 2328 2324 2326 2339 2341 2325 2347 2339 2334 2350 2334 2345 2348 2361 2354 2350 2357 2333 2356 2395 2441 2440 2456 2391 2481 2473 2449 2419 2536 2530 2460 2473 2483 2448 2454 2473 2464 2443 2475 2474 2458 2447 2501 2374 2408 2373 2437 2391 2410 2414 2413 2446 2493 2446 2558 2720
2647 2443 2497 2406 2419 2423 2441 2426 2437 2406 2364 2390 2341 2259 2295 2305 2257 2096 1012 638 317 324 0 0 0 0 0 0 0 0 0 0 0 0 0 0 0 0 0 0 317 314 287 288 691 1486 1831 1890 2108 2143 2159 2211 2226 2252 2225 2208 2261 2277 2300 2294 2284 2279 2288 2310 2308 2328 2316 2311 2337 2316 2303 2326 2340 2348 2335 2335 2359 2334 2321 2345 2309 2341 2318 2383 2436 2446 2409 2417 2469 2430 2409 2450 2444 2449 2465 2514 2482 2522 2478 2435 2452 2445 2442 2415 2418 2452 2426 2436 2393 2431 2343 2478 2443 2435 2577 2465 2449 2476 2531 0
2691 2708 2589 2470 2452 2527 2493 2468 2431 2395 2413 0 0 0 2301 2338 2250 1916 612 423 330 321 0 0 0 0 0 0 0 0 0 0 0 0 0 0 0 0 0 323 320 294 283 385 1446 1486 1544 1994 2124 2178 2199 2207 2251 2243 2239 2226 2263 2288 2294 2328 2290 2296 2346 2287 2305 2313 2329 2329 2328 2331 2325 2336 2353 2344 2340 2359 2349 2324 2346 2323 2333 2353 2338 2494 2306 2428 2467 2457 2445 2415 2462 2351 2427 2482 2419 2491 2706 2440 2486 2458 2425 2522 2543 2442 2407 2450 2484 2538 2499 0 2494 2457 0 0 2427 2505 2541 2659 0 0
2931 2711 2675 2512 2548 2507 2552 2528 2501 2445 2437 0 0 0 0 2301 2251 1951 563 364 321 319 0 0 0 0 0 0 0 0 0 0 0 0 0 0 0 0 0 317 300 277 295 786 1569 1594 1746 2108 2172 2181 2220 2229 2238 2270 2251 2260 2270 2275 2291 2307 2319 2316 2320 2307 2304 2331 2348 2332 2334 2355 2337 2359 2355 2318 2344 2332 2340 2351 2340 2336 2364 2393 2445 2448 2591 0 0 2611 2548 2460 2458 2471 2579 2475 2482 2509 2580 2603 2590 2509 2532 2483 2538 2506 2487 2427 2562 2558 2494 2579 0 0 0 2626 0 0 0 0 0 0
2886 2834 2712 2564 2544 2585 2672 2511 2528 2430 2425 2456 0 0 0 0 2226 2081 692 334 315 318 311 0 0 0 0 0 0 0 0 0 0 0 0 0 0 0 316 308 283 276 463 1319 1406 1458 1989 2110 2128 2198 2161 2191 2243 2252 2268 2255 2260 2295 2279 2305 2302 2310 2340 2325 2331 2301 2269 2341 2336 2345 2333 2326 2324 2336 2320 2313 2342 2330 2337 2342 2420 2475 2397 2423 2418 2421 0 0 2447 2511 2501 2466 2562 2459 2527 2513 2499 2470 2574 0 0 2503 2458 2474 2494 2473 2478 2498 2545 2501 2652 0 0 0 0 0 0 0 0 0
0 0 2930 2604 2690 0 0 0 0 2547 0 2514 2494 0 0 0 0 0 472 323 322 322 315 320 0 0 0 0 0 0 0 0 0 0 0 0 0 322 317 311 298 304 767 1291 1269 1714 2013 2069 2148 2100 2136 2198 2185 2205 2187 2256 2232 2229 2285 2305 2299 2305 2303 2294 2279 2309 2280 2300 2299 2305 2323 2307 2315 2329 2312 2335 2320 2312 2319 2367 2468 2320 2428 2447 2422 2445 2465 0 0 0 0 2505 2457 2503 2582 2475 2427 2492 2441 2514 0 0 2542 2578 2513 2487 2406 2593 2475 2599 2591 2717 0 0 0 0 0 0 0 0
3875 0 0 2728 2789 0 0 0 0 0 0 2700 2657 0 0 0 196 336 307 318 313 303 315 312 0 0 0 0 0 0 0 0 0 0 0 0 313 310 304 239 256 330 939 1201 1220 1853 2040 2126 2108 2186 2189 2230 2229 2244 2234 2249 2306 2239 2298 2315 2311 2332 2328 2330 2330 2314 2327 2319 2302 2329 2353 2326 2383 2394 2358 2345 2361 2381 2333 0 2500 2432 2502 2407 0 2538 2524 2471 2542 0 0 0 2795 2529 2523 2495 2531 2566 2454 2684 2579 2644 0 0 0 2530 2593 2535 2737 0 0 0 0 0 0 0 0 0 0 4044
4060 3876 0 0 2795 0 0 0 0 0 0 0 0 0 0 0 315 364 330 314 313 316 311 313 316 0 0 0 0 0 0 0 0 0 0 0 312 320 297 278 286 528 893 893 1267 1571 1930 2076 2070 2135 2129 2167 2139 2195 2176 2212 2260 2245 2270 2290 2275 2281 2284 2310 2312 2313 2279 2304 2292 2305 2312 2301 2369 2350 2313 2289 2340 2281 0 0 0 0 2414 2429 0 2431 2447 2473 2426 2427 0 0 0 0 2473 2469 2462 2502 0 2519 2420 2435 2449 0 0 0 0 2402 2571 0 0 0 0 0 0 0 0 0 0 0
4250 4144 3936 0 0 0 0 4211 14 0 0 0 0 0 0 290 298 331 317 309 312 304 313 307 308 304 313 0 0 0 0 0 0 0 0 314 307 315 276 248 330 601 746 813 1126 1578 1879 2022 2112 2076 2004 2027 2170 2147 2228 2198 2166 2267 2207 2173 2272 2253 2270 2253 2251 2320 2285 2231 2289 2324 2283 2272 2253 2321 2267 2283 2284 2137 0 0 0 0 0 0 2444 2428 2371 2355 0 2427 2566 0 0 0 0 0 2529 2472 0 0 2581 2473 2534 0 0 0 0 0 0 0 0 0 0 0 0 0 0 0 4111 51
4234 4139 4013 3884 0 4070 4153 4225 45 4349 0 0 0 0 98 163 240 305 306 314 320 331 313 313 305 312 315 314 0 0 321 319 318 314 313 309 314 288 231 229 338 517 529 866 0 0 0 0 0 0 0 0 2137 2123 2217 2206 2142 2202 2189 2283 2268 2268 2383 2267 2272 2265 2263 2293 2278 2328 2309 2340 2312 2294 2202 0 0 0 0 0 0 0 0 0 0 2530 2567 0 0 2550 2507 2612 0 0 0 0 0 0 0 2637 0 0 0 2646 2667 2738 0 0 0 0 0 0 0 0 0 0 0 3928 0 14
54 4170 4098 4005 4172 87 4154 1 10 4344 69 0 0 148 239 185 243 314 302 318 286 292 293 309 302 312 306 303 301 298 311 314 320 324 308 302 324 290 244 253 404 412 579 0 0 0 0 0 0 0 0 0 0 2060 1910 2076 2164 2104 2121 2148 2220 2155 2265 2165 2252 2298 2336 2286 2309 2269 2161 2285 2255 2192 0 0 0 0 0 0 0 0 0 0 0 0 0 0 0 0 0 0 0 2515 0 0 0 0 0 0 2523 0 0 0 0 2784 0 0 0 0 0 0 0 0 0 0 4098 0 0 0
