4200 4141 4191 0 0 0 0 0 0 0 0 0 0 0 0 0 0 0 0 0 0 0 0 0 0 0 0 0 0 0 0 0 0 0 2330 2318 0 2287 0 0 0 0 0 0 0 0 0 0 0 0 2283 0 0 0 0 0 0 0 0 0 0 0 0 0 0 0 0 0 0 0 0 0 0 0 0 0 0 0 0 0 0 0 0 0 0 0 0 0 0 0 0 0 0 0 0 0 0 0 0 0 0 0 0 0 0 0 0 0 0 0 0 0 0 0 0 0 0 0 0 0
4188 4213 0 0 0 0 0 0 0 0 0 0 0 0 0 0 0 0 0 0 0 0 0 0 2375 2382 2329 0 2370 2348 2297 2404 2397 2325 2364 2305 2313 2340 2291 2343 2332 2346 2333 2326 2324 2323 2342 2323 0 2307 2325 2297 2310 2336 2331 2309 2284 2319 0 2304 2263 2352 0 2266 2336 2221 0 0 0 0 2314 2302 2291 2283 2301 2335 2298 0 2349 2276 2272 0 0 0 0 0 0 0 0 0 0 0 0 0 0 0 0 0 0 0 0 0 0 0 0 0 0 0 0 0 0 0 0 0 0 0 0 0 0 0
4214 4191 0 0 0 0 0 0 0 0 0 0 0 0 0 0 2484 2428 2386 0 2412 0 0 2409 2387 2337 2343 2353 2342 2347 2360 2359 2349 2311 2331 2341 2321 2359 2341 2332 2328 2308 2358 2313 2318 2307 2314 2290 0 2310 2331 2309 2323 2291 2320 2285 2306 2319 2286 2310 2323 2319 2300 2279 2286 2318 2323 2292 2321 2255 2331 2301 2331 2298 2316 2322 2306 2351 2342 2331 2355 2339 2318 0 2311 2354 2346 0 0 2334 2325 2324 0 2355 2313 0 0 0 2379 0 0 0 0 0 0 0 0 0 0 2405 0 0 0 0 0 0 0 0 0 0
4192 4163 0 0 0 0 0 0 0 0 0 0 0 2569 2496 2545 2478 2445 2456 2507 2447 2444 2475 2404 2414 2333 2371 2353 2350 2353 2375 2338 2359 2359 2390 2367 2334 2344 2334 2331 2354 2376 2342 2356 2325 2341 2307 2320 2348 2319 2324 2333 2336 2320 2317 2322 2319 2329 2341 2310 2298 2365 2309 2348 2320 2314 2352 2339 2341 2345 2311 2303 2323 2326 2330 2335 2346 2358 2368 2344 2352 2373 2326 2337 2376 2322 2344 2547 2354 2368 2341 2347 2347 2334 2344 2388 2415 2385 2387 2391 0 0 0 0 0 0 0 0 2391 2480 0 2497 0 0 0 0 0 0 0 0
0 0 0 0 0 0 0 0 0 2549 2585 2545 2473 2483 2489 2457 2452 2450 2401 2389 2421 2434 2397 2360 2379 2385 2374 2366 2350 2367 2341 2353 2350 2372 2350 2340 2351 2341 2347 2334 2339 2333 2303 2346 2350 2328 2347 2346 2323 2328 2345 2355 2340 2333 2332 2341 2315 2328 2340 2326 2341 2321 2334 2314 2347 2347 2321 2323 2323 2333 2317 2364 2326 2326 2351 2324 2331 2347 2342 2317 2345 2339 2333 2334 2336 2332 2360 2310 2322 2348 2350 2341 2342 2352 2353 2347 2360 2333 2359 2364 2367 2368 2398 2395 0 0 0 0 2370 2436 2409 2409 2368 2436 2517 0 0 0 0 0
0 0 0 0 0 0 0 0 0 2510 2444 2508 2461 2478 2396 2418 2400 2385 2431 2418 2385 2351 2376 2366 2361 2358 2374 2359 2349 2329 2342 2350 2347 2344 2357 2340 2349 2321 2343 2338 2333 2357 2333 2333 2338 2317 2321 2299 2329 2336 2325 2332 2316 2318 2322 2299 2323 2322 2314 2313 2304 2300 2322 2295 2305 2306 2319 2332 2333 2316 2323 2320 2315 2324 2308 2323 2320 2312 2320 2326 2303 2332 2323 2334 2344 2317 2324 2349 2330 2356 2340 2301 2329 2343 2318 2337 2342 2348 2343 2338 2380 2382 2347 2370 2374 0 0 0 2389 2380 2414 2402 2377 2379 2473 2456 0 0 0 0
0 0 0 0 0 0 0 0 0 2494 2488 2438 2454 2423 2381 2408 2401 2412 2383 2405 2404 2395 2391 2382 2371 2361 2386 2369 2377 2356 2358 2368 2357 2357 2358 2348 2312 2353 2345 2353 2341 2335 2345 2329 2353 2349 2342 2330 2329 2341 2319 2329 2332 2335 2336 2338 2326 2321 2329 2330 2335 2319 2333 2354 2322 2324 2310 2331 2344 2351 2339 2307 2326 2325 2345 2329 2330 2341 2316 2347 2330 2349 2322 2332 2321 2349 2322 2322 2336 2329 2344 2364 2338 2334 2339 2321 2344 2341 2325 2346 2358 2338 2364 2356 2335 2373 2434 0 2381 2350 2393 2408 2362 2401 2394 2433 2433 2519 0 0
0 0 0 0 0 0 0 0 2494 2485 2438 2443 2404 2419 2405 2402 2390 2399 2372 2382 2386 2393 2367 2389 2383 2370 2370 2367 2371 2357 2343 2351 2348 2343 2352 2359 2345 2350 2335 2324 2331 2336 2341 2334 2335 2337 2319 2330 2352 2321 2321 2349 2327 2325 2342 2340 2329 2354 2346 2342 2331 2335 2352 2338 2320 2356 2316 2337 2331 2340 2349 2341 2341 2337 2334 2326 2348 2329 2332 2350 2327 2336 2340 2342 2332 2323 2328 2339 2341 2348 2325 2333 2354 2351 2343 2350 2320 2346 2351 2345 2342 2345 2378 2399 2366 2398 2386 2348 2371 2349 2387 2412 2379 2421 2399 2437 2412 2453 2486 0
0 0 0 0 0 0 0 0 2577 2468 2432 2443 2405 2419 2397 2401 2383 2381 2389 2419 2390 2372 2408 2387 2386 2384 2341 2380 2343 2355 2367 2358 2348 2365 2352 2327 2352 2340 2339 2349 2350 2361 2341 2341 2338 2370 2346 2343 2325 2351 2333 2332 2333 2332 2334 2327 2343 2330 2354 2332 2324 2340 2324 2343 2333 2329 2341 2338 2349 2357 2342 2344 2342 2351 2335 2329 2341 2362 2345 2343 2335 2326 2345 2353 2343 2320 2356 2348 2334 2348 2348 2340 2323 2346 2339 2347 2356 2333 2353 2358 2358 2328 2358 2375 2374 2338 2378 2397 2331 2344 2372 2416 2353 2368 2428 2359 2469 2500 2526 0
0 0 0 0 0 0 0 0 2546 2406 2438 2422 2395 2426 2386 2382 2409 2392 2379 2396 2391 2379 2377 2373 2378 2362 2370 2362 2358 2367 2371 2363 2363 2365 2345 2364 2355 2349 2348 2346 2332 2345 2347 2346 2349 2329 2327 2361 2343 2331 2343 2329 2332 2344 2342 2332 2354 2333 2332 2340 2334 2315 2335 2335 2336 2327 2323 2331 2348 2320 2344 2351 2340 2330 2339 2332 2328 2330 2332 2322 2311 2324 2342 2333 2334 2323 2340 2330 2338 2343 2323 2328 2333 2331 2342 2344 2327 2349 2318 2351 2337 2355 2351 2366 2351 2360 2380 2356 2350 2353 2362 2399 2405 2354 2369 2378 2415 2516 0 0
0 0 0 0 0 0 0 2454 2468 2432 2422 2410 2409 2402 2391 2370 2368 2384 2365 2389 2365 2374 2370 2374 2367 2364 2361 2363 2356 2343 2360 2351 2350 2344 2349 2327 2354 2344 2356 2337 2328 2348 2333 2335 2341 2334 2320 2341 2332 2340 2348 2333 2334 2333 2322 2319 2339 2338 2322 2335 2327 2339 2312 2333 2330 2327 2327 2341 2318 2329 2313 2336 2320 2325 2315 2331 2331 2331 2345 2335 2330 2325 2336 2335 2320 2324 2330 2332 2340 2339 2339 2313 2317 2322 2331 2348 2324 2337 2338 2345 2352 2327 2333 2338 2340 2342 2348 2324 2347 2327 2329 2349 2341 2346 2363 2357 2389 2379 2380 2422
0 0 0 0 2550 2553 2483 2478 2437 2445 2399 2399 2376 2410 2388 2383 2378 2365 2364 2392 2376 2372 2369 2372 2377 2369 2364 2353 2363 2351 2353 2360 2348 2349 2352 2362 2356 2355 2345 2356 2354 2351 2334 2359 2341 2345 2336 2343 2335 2338 2342 2341 2336 2340 2337 2348 2342 2338 2344 2340 2331 2344 2332 2347 2341 2342 2320 2345 2329 2326 2340 2335 2324 2342 2334 2340 2344 2352 2344 2341 2337 2333 2333 2344 2341 2340 2338 2342 2353 2334 2332 2340 2343 2333 2335 2327 2343 2342 2337 2350 2347 2339 2330 2335 2337 2337 2364 2356 2347 2351 2357 2354 2367 2370 2347 2357 2352 2386 2364 2494
0 0 0 2614 2615 2521 2483 2508 2461 2432 2406 2404 2378 2402 2374 2392 2386 2384 2367 2391 2367 2357 2377 2367 2363 2373 2367 2359 2367 2366 2350 2357 2369 2352 2361 2349 2352 2342 2341 2342 2350 2353 2353 2347 2348 2351 2348 2355 2336 2341 2335 2341 2342 2332 2337 2346 2338 2343 2334 2347 2337 2340 2342 2341 2338 2341 2338 2350 2327 2345 2346 2323 2345 2330 2333 2340 2346 2348 2347 2335 2338 2325 2347 2335 2329 2346 2340 2344 2344 2342 2333 2341 2334 2342 2337 2331 2335 2344 2355 2347 2322 2334 2346 2361 2349 2334 2369 2343 2348 2357 2335 2340 2336 2371 2360 2354 2383 2370 2397 2426
0 0 0 2562 2535 2493 2516 2463 2435 2397 2409 2399 2384 2395 2389 2373 2379 2390 2377 2376 2368 2372 2363 2377 2361 2366 2365 2376 2364 2365 2354 2353 2366 2342 2347 2355 2354 2351 2353 2343 2349 2360 2356 2350 2344 2351 2350 2342 2338 2346 2348 2333 2329 2348 2336 2334 2334 2345 2332 2342 2343 2331 2335 2335 2337 2337 2340 2336 2322 2340 2345 2330 2330 2342 2350 2336 2332 2329 2342 2331 2346 2338 2347 2338 2343 2349 2335 2333 2336 2345 2335 2343 2346 2355 2338 2328 2345 2325 2336 2357 2327 2345 2335 2338 2347 2337 2343 2343 2347 2336 2339 2341 2340 2343 2366 2362 2350 2399 2373 2412
0 0 0 2558 2457 2461 2473 2413 2412 2381 2378 2394 2386 2385 2380 2373 2379 2368 2370 2367 2367 2370 2372 2367 2367 2356 2364 2370 2360 2373 2358 2347 2357 2357 2357 2363 2357 2344 2351 2342 2349 2350 2352 2348 2349 2337 2346 2341 2340 2357 2344 2344 2342 2352 2341 2335 2339 2349 2341 2340 2333 2356 2337 2341 2341 2341 2341 2340 2347 2345 2339 2350 2351 2346 2346 2340 2343 2350 2344 2336 2336 2336 2355 2343 2341 2346 2340 2350 2343 2327 2333 2338 2333 2336 2345 2334 2350 2342 2354 2342 2336 2348 2346 2335 2338 2333 2358 2338 2336 2342 2356 2344 2336 2348 2349 2365 2340 2360 2396 2393
0 0 0 0 2534 2495 2488 2424 2407 2398 2368 2386 2395 2382 2378 2380 2369 2365 2378 2383 2368 2365 2369 2369 2367 2363 2376 2359 2359 2366 2362 2360 2352 2352 2359 2358 2354 2344 2354 2356 2343 2350 2348 2348 2345 2344 2345 2351 2350 2352 2351 2356 2349 2347 2334 2339 2339 2344 2340 2348 2337 2336 2344 2339 2341 2343 2347 2343 2338 2333 2350 2332 2337 2335 2341 2344 2343 2346 2340 2349 2343 2346 2346 2335 2347 2329 2348 2340 2342 2331 2326 2339 2338 2334 2334 2342 2338 2343 2338 2341 2354 2338 2349 2342 2334 2328 2358 2350 2340 2341 2344 2347 2346 2348 2346 2360 2349 2357 2378 2399
0 0 0 2591 2472 2499 2480 2442 2412 2420 2399 2396 2386 2382 2382 2373 2368 2359 2393 2388 2375 2371 2373 2362 2368 2370 2366 2367 2368 2364 2361 2371 2347 2365 2359 2363 2357 2359 2346 2352 2368 2362 2358 2350 2354 2345 2350 2353 2338 2351 2342 2344 2343 2342 2346 2356 2346 2352 2346 2343 2341 2337 2344 2346 2337 2340 2344 2342 2343 2341 2353 2349 2347 2346 2353 2343 2350 2349 2336 2342 2342 2343 2335 2326 2342 2343 2337 2335 2342 2326 2344 2343 2341 2333 2337 2328 2342 2345 2336 2351 2334 2330 2340 2336 2353 2343 2344 2347 2343 2340 2332 2363 2341 2335 2334 2365 2358 2374 2391 2366
0 0 0 2480 2489 2468 2409 2433 2412 2379 2379 2394 2388 2386 2367 2376 2373 2366 2374 2368 2361 2366 2367 2369 2360 2371 2371 2357 2359 2365 2360 2340 2353 2358 2351 2347 2353 2346 2353 2355 2343 2357 2353 2352 2355 2353 2359 2348 2348 2349 2338 2338 2344 2342 2337 2339 2335 2342 2340 2339 2344 2351 2335 2335 2338 2329 2346 2337 2347 2339 2340 2348 2348 2346 2350 2338 2339 2345 2344 2336 2343 2350 2345 2336 2345 2338 2335 2327 2328 2337 2338 2325 2336 2335 2344 2336 2334 2341 2337 2330 2342 2338 2334 2340 2336 2335 2342 2338 2335 2337 2342 2335 2346 2358 2343 2353 2338 2350 2352 2348
0 0 0 0 2427 2415 2450 2396 2379 2388 2370 2367 2376 2365 2371 2372 2372 2374 2368 2358 2368 2367 2351 2364 2358 2356 2352 2362 2359 2351 2355 2351 2357 2350 2350 2344 2350 2351 2350 2351 2348 2345 2356 2343 2344 2343 2338 2342 2347 2351 2347 2342 2344 2333 2340 2336 2339 2339 2340 2341 2342 2343 2339 2348 2341 2344 2332 2342 2344 2340 2344 2338 2343 2335 2343 2341 2340 2345 2338 2337 2341 2341 2337 2329 2328 2331 2332 2333 2332 2339 2330 2333 2334 2334 2324 2336 2334 2324 2329 2342 2338 2329 2333 2327 2319 2337 2337 2332 2334 2322 2331 2335 2340 2324 2326 2328 2336 2356 2323 2359
0 0 0 0 2496 2470 2426 2418 2399 2385 2381 2386 2378 2383 2378 2373 2365 2380 2372 2360 2386 2377 2357 2360 2360 2353 2371 2364 2355 2363 2350 2355 2345 2354 2355 2344 2353 2351 2360 2352 2356 2353 2343 2344 2345 2339 2356 2345 2336 2348 2342 2345 2349 2339 2342 2349 2348 2347 2339 2349 2340 2336 2350 2346 2349 2343 2343 2334 2344 2349 2343 2334 2342 2342 2349 2342 2341 2350 2343 2344 2334 2344 2348 2337 2337 2345 2337 2343 2338 2335 2341 2344 2333 2340 2341 2346 2347 2328 2338 2328 2347 2342 2341 2340 2328 2342 2358 2344 2327 2340 2336 2335 2337 2333 2348 2362 2351 2346 2356 2350
0 0 0 2534 2455 2411 2410 2400 2396 2388 2390 2394 2367 2388 2380 2369 2369 2368 2375 2381 2378 2364 2378 2367 2372 2367 2363 2353 2349 2366 2361 2352 2364 2361 2350 2351 2355 2356 2355 2353 2348 2354 2346 2354 2354 2346 2343 2352 2346 2347 2336 2346 2346 2337 2355 2342 2349 2337 2342 2343 2350 2344 2332 2351 2352 2344 2345 2344 2347 2348 2344 2344 2345 2346 2349 2342 2344 2352 2344 2338 2344 2335 2344 2353 2339 2331 2335 2343 2335 2339 2342 2341 2344 2342 2342 2334 2339 2333 2342 2324 2339 2338 2339 2332 2344 2329 2335 2327 2346 2336 2345 2358 2357 2351 2330 2339 2358 2359 2384 2366
0 0 0 2513 2433 2413 2412 2398 2401 2385 2377 2369 2392 2385 2376 2384 2380 2366 2372 2376 2376 2362 2370 2366 2364 2362 2368 2370 2358 2370 2351 2367 2353 2355 2353 2354 2351 2359 2355 2340 2350 2345 2363 2353 2354 2355 2351 2351 2348 2357 2348 2350 2350 2347 2346 2346 2348 2346 2344 2346 2344 2343 2345 2345 2342 2348 2344 2348 2341 2357 2342 2345 2341 2349 2338 2346 2340 2350 2338 2341 2347 2341 2340 2349 2341 2331 2340 2332 2338 2335 2333 2343 2343 2337 2349 2349 2337 2338 2344 2347 2339 2344 2341 2335 2347 2350 2334 2343 2340 2347 2340 2355 2335 2348 2339 2350 2346 2353 2363 2351
0 0 0 2451 2428 2412 2408 2396 2391 2388 2392 2373 2377 2369 2373 2373 2376 2365 2362 2381 2362 2361 2356 2364 2363 2362 2373 2355 2357 2359 2359 2352 2354 2359 2359 2349 2353 2339 2359 2349 2352 2355 2336 2359 2347 2350 2350 2353 2359 2356 2347 2341 2347 2342 2348 2351 2348 2343 2345 2344 2339 2346 2345 2346 2347 2346 2342 2338 2332 2336 2333 2337 2345 2351 2336 2339 2340 2344 2333 2342 2341 2347 2341 2334 2338 2339 2344 2333 2342 2334 2343 2339 2324 2339 2341 2341 2346 2341 2334 2330 2337 2341 2341 2345 2334 2339 2338 2353 2343 2336 2336 2336 2332 2348 2345 2340 2336 2359 2346 2361
0 0 0 2476 2437 2433 2418 2400 2408 2395 2401 2389 2379 2376 2384 2377 2374 2382 2390 2383 2390 2378 2390 2370 2374 2363 2352 2345 2362 2359 2362 2365 2355 2357 2366 2357 2351 2358 2353 2362 2351 2356 2350 2353 2360 2355 2359 2344 2356 2342 2347 2352 2345 2349 2349 2354 2356 2352 2342 2351 2346 2343 2348 2357 2347 2354 2349 2347 2343 2355 2343 2341 2350 2354 2350 2347 2353 2341 2352 2343 2343 2346 2347 2327 2340 2341 2346 2342 2349 2334 2345 2350 2342 2343 2335 2342 2357 2344 2346 2348 2329 2335 2340 2340 2346 2346 2356 2354 2335 2343 2341 2350 2358 2346 2354 2355 2371 2360 2353 2385
0 0 2475 2420 2425 2388 2409 2423 2399 2390 2390 2381 2385 2377 2384 2376 2391 2375 2368 2360 2382 2365 2377 2368 2374 2366 2362 2364 2369 2364 2359 2361 2356 2367 2367 2351 2356 2355 2350 2365 2357 2347 2363 2346 2358 2348 2354 2347 2351 2362 2360 2357 2354 2344 2350 2349 2349 2340 2352 2347 2350 2340 2343 2343 2343 2349 2341 2342 2348 2349 2340 2345 2345 2347 2348 2345 2340 2349 2346 2349 2349 2335 2339 2341 2335 2348 2331 2341 2344 2338 2344 2341 2350 2349 2337 2354 2349 2333 2342 2346 2338 2341 2333 2339 2333 2316 2332 2351 2344 2339 2344 2354 2349 2325 2356 2350 2367 2353 2346 2370
0 0 2477 2413 2425 2394 2431 2398 2418 2393 2394 2384 2391 2387 2383 2391 2380 2375 2377 2386 2389 2377 2370 2365 2371 2378 2359 2364 2364 2374 2372 2358 2357 2356 2375 2371 2357 2359 2358 2349 2349 2362 2351 2351 2353 2357 2354 2350 2351 2358 2350 2347 2348 2359 2356 2349 2350 2354 2348 2341 2360 2348 2354 2355 2344 2353 2346 2343 2355 2357 2351 2347 2348 2344 2355 2338 2352 2346 2354 2355 2348 2342 2347 2350 2344 2343 2347 2346 2348 2349 2349 2342 2340 2353 2347 2338 2349 2347 2343 2348 2330 2342 2343 2351 2343 2349 2358 2348 2344 2350 2345 2337 2343 2347 2352 2345 2353 2351 2362 2374
0 2470 2450 2406 2409 2382 2394 2374 2387 2363 2384 2381 2380 2377 2372 2377 2366 2373 2359 2379 2384 2384 2374 2358 2365 2360 2356 2357 2366 2364 2351 2345 2358 2352 2357 2353 2348 2355 2354 2364 2354 2352 2352 2356 2360 2347 2356 2347 2351 2357 2343 2346 2347 2351 2350 2351 2347 2348 2349 2343 2349 2348 2354 2344 2356 2347 2350 2334 2354 2341 2341 2340 2350 2350 2339 2352 2347 2352 2347 2354 2343 2333 2343 2333 2343 2341 2345 2340 2338 2334 2330 2345 2342 2336 2337 2341 2335 2342 2341 2334 2340 2350 2339 2332 2326 2329 2355 2344 2337 2342 2337 2349 2339 2338 2334 2341 2355 2335 2352 2332
0 2534 2417 2416 2460 2418 2426 2406 2394 2394 2380 2394 2369 2378 2391 2362 2375 2390 2375 2388 2372 2371 2363 2368 2358 2369 2368 2354 2356 2353 2356 2356 2358 2357 2354 2352 2351 2347 2352 2360 2351 2352 2351 2356 2357 2348 2348 2351 2352 2358 2343 2348 2357 2353 2348 2348 2340 2354 2350 2349 2349 2348 2338 2348 2342 2350 2351 2350 2344 2346 2347 2349 2344 2345 2349 2347 2350 2340 2333 2341 2339 2343 2345 2348 2339 2338 2333 2349 2336 2344 2341 2332 2342 2339 2340 2337 2329 2334 2343 2332 2345 2345 2345 2345 2330 2334 2355 2336 2338 2347 2339 2335 2333 2338 2346 2334 2352 2356 2344 2365
0 0 2445 2484 2440 2425 2397 2405 2416 2400 2398 2384 2378 2397 2394 2386 2376 2387 2384 2377 2385 2371 2368 2378 2376 2369 2368 2372 2366 2364 2359 2354 2360 2362 2354 2360 2350 2359 2364 2351 2358 2352 2354 2359 2357 2359 2354 2358 2356 2354 2359 2362 2355 2352 2358 2353 2354 2346 2352 2352 2347 2347 2353 2347 2350 2357 2351 2344 2355 2349 2349 2342 2350 2351 2345 2347 2358 2350 2345 2355 2347 2352 2345 2346 2354 2344 2350 2347 2339 2347 2338 2348 2351 2352 2338 2339 2350 2340 2342 2333 2334 2342 2338 2348 2346 2344 2347 2355 2339 2347 2355 2346 2357 2343 2342 2338 2331 2374 2350 2375
0 0 2488 2485 2412 2401 2409 2395 2398 2375 2381 2391 2394 2373 2375 2383 2395 2378 2378 2383 2378 2369 2372 2357 2365 2367 2355 2365 2361 2365 2361 2362 2358 2357 2357 2351 2364 2355 2357 2354 2358 2347 2352 2352 2358 2358 2359 2353 2346 2359 2356 2351 2351 2358 2358 2349 2358 2349 2351 2356 2351 2347 2353 2350 2350 2352 2342 2349 2346 2340 2351 2338 2350 2344 2348 2350 2357 2358 2343 2348 2349 2349 2332 2348 2342 2337 2344 2337 2335 2346 2345 2341 2346 2340 2342 2341 2347 2337 2349 2341 2343 2340 2346 2340 2336 2337 2365 2336 2346 2330 2343 2333 2340 2325 2347 2362 2345 2362 2361 2335
0 0 2432 2432 2441 2380 2411 2393 2400 2381 2387 2391 2387 2381 2380 2380 2374 2383 2381 2372 2390 2371 2389 2375 2375 2364 2360 2360 2372 2360 2366 2363 2355 2352 2353 2353 2358 2357 2352 2350 2358 2357 2360 2354 2350 2354 2356 2358 2353 2359 2360 2353 2350 2352 2351 2350 2356 2361 2341 2347 2346 2349 2347 2346 2354 2347 2347 2348 2354 2348 2350 2349 2345 2348 2352 2348 2352 2357 2352 2348 2348 2350 2352 2338 2352 2348 2342 2352 2348 2337 2342 2352 2339 2345 2346 2337 2339 2347 2342 2337 2344 2335 2329 2334 2348 2346 2350 2348 2334 2349 2347 2345 2342 2347 2341 2343 2354 2374 2343 2378
0 2528 2477 2450 2445 2394 2413 2403 2381 2374 2388 2395 2384 2379 2380 2369 2392 2390 2377 2373 2379 2378 2380 2376 2370 2373 2374 2369 2357 2364 2361 2357 2358 2355 2358 2358 2365 2362 2369 2362 2360 2362 2358 2345 2346 2353 2358 2352 2360 2350 2358 2346 2360 2351 2349 2350 2351 2355 2353 2353 2355 2351 2349 2352 2350 2361 2349 2355 2355 2348 2352 2352 2347 2355 2346 2351 2355 2364 2339 2351 2342 2337 2354 2342 2348 2350 2340 2343 2348 2344 2341 2345 2348 2348 2348 2332 2348 2347 2339 2344 2342 2334 2349 2341 2351 2342 2324 2337 2347 2339 2343 2336 2331 2335 2335 2348 2338 2332 2359 2355
0 2534 2491 2471 2454 2460 2425 2409 2397 2398 2404 2387 2381 2401 2398 2383 2389 2384 2388 2379 2385 2382 2368 2375 2379 2372 2380 2371 2371 2368 2366 2365 2369 2362 2361 2352 2360 2361 2356 2357 2362 2360 2358 2355 2356 2350 2358 2361 2360 2360 2357 2356 2363 2356 2352 2350 2354 2353 2353 2354 2350 2360 2357 2354 2357 2359 2358 2354 2349 2357 2353 2354 2357 2348 2352 2347 2352 2354 2355 2358 2363 2347 2349 2346 2346 2349 2347 2351 2357 2341 2355 2357 2349 2347 2348 2349 2342 2345 2347 2356 2343 2351 2349 2345 2355 2359 2351 2345 2343 2348 2350 2347 2352 2353 2345 2357 2351 2358 2350 2355
0 2561 2452 2475 2442 2435 2426 2410 2382 2408 2390 2398 2390 2397 2395 2399 2395 2374 2385 2371 2381 2382 2386 2376 2381 2377 2369 2379 2377 2377 2374 2367 2370 2359 2368 2365 2357 2361 2365 2361 2354 2364 2356 2362 2360 2360 2356 2357 2365 2362 2354 2350 2352 2359 2354 2357 2350 2359 2361 2350 2359 2358 2361 2354 2355 2347 2355 2354 2352 2355 2361 2347 2363 2361 2355 2355 2356 2362 2358 2354 2356 2356 2353 2353 2350 2352 2351 2351 2351 2346 2346 2349 2344 2348 2345 2344 2347 2351 2346 2347 2335 2341 2355 2350 2355 2358 2345 2333 2345 2343 2347 2338 2343 2353 2361 2354 2344 2360 2357 2357
0 0 2466 2455 2414 2429 2413 2412 2405 2393 2402 2401 2394 2377 2383 2378 2381 2386 2380 2378 2372 2365 2383 2372 2368 2367 2369 2373 2363 2369 2371 2362 2364 2366 2358 2359 2359 2359 2358 2359 2360 2351 2356 2363 2359 2357 2358 2359 2352 2364 2361 2351 2347 2349 2362 2355 2358 2351 2348 2354 2347 2351 2351 2360 2356 2348 2354 2352 2362 2356 2355 2353 2350 2351 2354 2351 2357 2354 2347 2343 2355 2348 2352 2346 2349 2351 2353 2354 2345 2348 2352 2345 2348 2343 2347 2343 2338 2344 2340 2347 2348 2339 2353 2333 2357 2339 2352 2335 2345 2351 2348 2342 2343 2337 2361 2344 2351 2353 2338 2367
0 2501 2435 2428 2429 2402 2392 2405 2382 2392 2401 2381 2382 2376 2385 2375 2384 2372 2381 2371 2376 2378 2369 2386 2380 2369 2369 2372 2370 2369 2374 2351 2356 2366 2367 2353 2360 2359 2366 2361 2370 2359 2358 2358 2356 2366 2362 2347 2349 2346 2357 2355 2352 2351 2352 2350 2358 2350 2353 2347 2352 2358 2353 2351 2353 2352 2352 2351 2358 2354 2356 2349 2350 2352 2364 2357 2351 2360 2347 2352 2354 2353 2355 2345 2347 2344 2348 2350 2346 2350 2342 2359 2356 2350 2341 2347 2337 2347 2347 2354 2348 2343 2343 2352 2347 2356 2360 2353 2344 2350 2350 2334 2342 2334 2335 2343 2336 2337 2358 2354
0 2516 2431 2509 2422 2425 2403 2397 2400 2392 2413 2392 2397 2376 2394 2374 2383 2375 2383 2385 2380 2385 2375 2374 2375 2366 2375 2373 2365 2358 2374 2367 2360 2368 2370 2365 2369 2368 2366 2369 2361 2364 2357 2358 2355 2355 2359 2356 2359 2367 2356 2359 2356 2344 2355 2348 2361 2353 2356 2345 2357 2351 2350 2348 2351 2353 2351 2348 2359 2365 2356 2352 2354 2361 2352 2364 2353 2358 2350 2350 2354 2347 2343 2354 2342 2363 2352 2349 2351 2348 2347 2355 2349 2348 2333 2347 2350 2351 2343 2339 2338 2357 2340 2345 2338 2350 2342 2338 2347 2340 2338 2352 2342 2332 2342 2339 2351 2366 2351 2367
0 0 2593 2458 2434 2468 2418 2418 2421 2396 2400 2402 2394 2401 2388 2378 2387 2382 2383 2384 2371 2369 2376 2374 2370 2374 2374 2366 2375 2368 2366 2370 2380 2366 2368 2365 2374 2361 2360 2364 2372 2358 2363 2364 2361 2359 2363 2361 2355 2366 2357 2343 2355 2349 2359 2356 2357 2357 2355 2353 2356 2362 2359 2358 2357 2357 2359 2361 2356 2351 2361 2355 2357 2359 2355 2356 2353 2356 2359 2350 2355 2360 2352 2350 2342 2350 2356 2349 2358 2351 2351 2348 2353 2351 2354 2354 2347 2349 2352 2342 2344 2353 2354 2336 2334 2364 2356 2350 2355 2360 2347 2348 2354 2359 2357 2335 2359 2365 2365 2434
0 0 0 2513 2511 2428 2468 2399 2412 2416 2407 2392 2420 2391 2396 2386 2389 2388 2391 2392 2381 2379 2376 2379 2382 2364 2379 2367 2376 2377 2358 2368 2362 2370 2372 2366 2363 2362 2364 2369 2361 2365 2366 2353 2359 2365 2363 2358 2367 2364 2366 2363 2364 2363 2363 2360 2364 2366 2361 2359 2365 2361 2364 2367 2357 2360 2368 2362 2359 2357 2362 2363 2361 2372 2358 2368 2363 2361 2357 2352 2357 2360 2355 2353 2352 2353 2360 2360 2358 2353 2357 2352 2354 2359 2358 2350 2354 2350 2357 2372 2353 2343 2353 2351 2359 2350 2352 2353 2358 2364 2361 2337 2351 2353 2344 2361 2375 2361 2367 2393
0 0 0 0 2466 2483 2458 2428 2428 2427 2405 2407 2411 2414 2403 2403 2395 2383 2392 2383 2378 2365 2388 2366 2373 2367 2365 2365 2373 2360 2362 2358 2363 2360 2361 2364 2354 2355 2366 2356 2362 2360 2364 2365 2364 2362 2363 2367 2348 2353 2355 2359 2352 2353 2349 2360 2360 2357 2366 2356 2362 2352 2354 2356 2360 2356 2347 2359 2356 2360 2355 2359 2357 2360 2349 2349 2351 2360 2356 2355 2355 2360 2352 2353 2356 2356 2365 2359 2359 2354 2359 2363 2345 2354 2356 2350 2358 2357 2354 2356 2347 2354 2357 2352 2339 2352 2343 2359 2365 2364 2358 2365 2379 2360 2372 2352 2381 2386 2385 2428
0 0 0 0 0 0 0 0 0 0 0 0 0 0 0 0 0 0 2408 2394 2410 2375 2387 2377 2375 2371 2381 2365 2370 2387 2372 2360 2361 2364 2372 2366 2362 2362 2366 2354 2361 2354 2360 2361 2364 2359 2353 2360 2362 2358 2357 2359 2350 2353 2351 2353 2358 2359 2364 2353 2358 2363 2352 2353 2359 2362 2362 2353 2357 2351 2356 2357 2358 2362 2348 2357 2354 2352 2363 2361 2376 2381 2378 2371 2380 2382 2376 2386 2382 2403 2376 2370 2367 2372 2366 2404 2373 2387 2357 2374 2355 2367 2352 2363 2362 2368 2350 2371 2357 2393 2358 2394 2375 2346 2384 2423 2347 2370 2399 2369
0 0 0 0 0 0 0 0 2502 2448 2426 2411 2419 2405 2418 2404 2407 2405 2398 2384 2399 2392 2379 2382 2378 2374 2379 2373 2372 2361 2367 2379 2366 2373 2370 2365 2364 2367 2362 2367 2367 2362 2363 2365 2355 2359 2360 2362 2361 2367 2363 2359 2359 2351 2364 2360 2355 2358 2359 2359 2368 2361 2361 2357 2365 2359 2359 2359 2360 2354 2360 2355 2363 2361 2356 2364 2357 2352 2364 2376 2360 2371 2373 2365 2354 2360 2386 2374 2364 2368 2367 2362 2371 2365 2370 2369 2379 2376 2374 2386 2380 2390 2408 2405 2382 2384 2387 2402 2395 2383 2413 2440 2428 2436 2409 2462 2486 0 0 0
0 0 0 0 0 0 0 0 0 0 0 0 0 0 0 0 0 2503 2525 0 2404 2395 2382 2386 2378 2375 2376 2390 2369 2370 2366 2377 2365 2357 2366 2364 2372 2369 2368 2366 2372 2360 2367 2366 2357 2360 2362 2352 2361 2362 2354 2357 2360 2363 2365 2358 2356 2364 2358 2364 2373 2359 2360 2362 2361 2373 2353 2366 2355 2354 2356 2359 2362 2357 2367 2357 2367 2367 2406 2433 2441 2423 2451 2423 2442 2460 2454 2436 2443 2463 2463 2444 2454 2461 2470 2446 2445 2447 2472 2469 2452 2444 2432 2474 2463 2471 2489 2454 2469 2467 2507 2484 2483 2530 2480 2533 0 0 0 0
0 0 0 0 0 0 0 2602 2571 2560 2526 2559 2498 2523 2491 2557 2504 2495 2498 2482 2412 2381 2383 2372 2376 2373 2376 2376 2372 2368 2367 2377 2364 2369 2366 2360 2362 2362 2372 2371 2360 2366 2356 2360 2358 2363 2361 2361 2354 2355 2363 2359 2363 2361 2352 2355 2358 2358 2351 2357 2357 2360 2360 2353 2349 2356 2359 2350 2354 2353 2358 2354 2360 2362 2359 2352 2358 2364 2414 2435 2442 2434 2442 2446 2439 2438 2444 2438 2445 2436 2436 2437 2440 2448 2434 2436 2435 2436 2434 2436 2436 2446 2444 2435 2429 2433 2443 2433 2425 2419 2440 2439 2448 2446 2446 2429 2453 2465 2467 2510
0 0 0 2799 2625 2620 2588 2596 2544 2534 2535 2517 2530 2494 2504 2518 2510 2507 2493 2485 2418 2387 2383 2380 2377 2381 2374 2381 2368 2376 2364 2364 2372 2373 2371 2369 2366 2364 2360 2362 2363 2362 2364 2362 2364 2360 2355 2359 2356 2354 2356 2355 2355 2355 2357 2363 2360 2356 2366 2359 2357 2355 2359 2359 2358 2362 2356 2352 2350 2360 2352 2357 2365 2364 2356 2356 2356 2355 2417 2432 2456 2454 2438 2450 2442 2437 2440 2442 2445 2448 2461 2441 2447 2445 2452 2461 2438 2440 2452 2417 2456 2443 2449 2448 2442 2462 2443 2428 2454 2437 2431 2465 2451 2457 2436 2462 2502 2487 2514 2496
0 0 0 0 0 0 0 2639 2598 2574 2497 2515 2506 2510 2523 2535 2482 2492 2482 2475 2407 2382 2387 2376 2385 2377 2385 2380 2374 2369 2364 2373 2372 2368 2375 2369 2362 2362 2364 2364 2373 2367 2371 2369 2360 2365 2363 2360 2357 2371 2366 2358 2354 2358 2363 2364 2357 2361 2363 2370 2362 2358 2356 2368 2363 2358 2361 2358 2362 2354 2361 2355 2363 2362 2363 2361 2358 2371 2402 2440 2433 2448 2442 2447 2449 2454 2454 2460 2420 2441 2448 2439 2440 2448 2444 2421 2466 2446 2461 2425 2430 2437 2466 2454 2461 2475 2470 2443 2424 2450 2438 2448 2463 2445 2453 2488 2457 2445 2475 2528
0 0 0 0 2706 2583 2626 2561 2546 2526 2495 2523 2512 2507 2500 2510 2496 2483 2481 2473 2401 2384 2379 2377 2377 2383 2383 2378 2376 2379 2367 2368 2368 2367 2369 2362 2359 2357 2366 2362 2363 2357 2361 2365 2364 2370 2363 2360 2363 2362 2357 2360 2363 2358 2365 2360 2357 2363 2361 2359 2363 2365 2363 2356 2345 2355 2360 2359 2359 2360 2358 2355 2358 2363 2357 2369 2360 2367 2409 2441 2441 2446 2448 2437 2450 2442 2443 2446 2449 2440 2449 2446 2447 2447 2450 2446 2440 2444 2434 2430 2447 2445 2434 2438 2441 2441 2438 2435 2434 2443 2444 2437 2449 2444 2443 2460 2475 2425 2445 2493
0 0 0 0 2654 2622 2686 2650 2571 2501 2526 2543 2523 2514 2529 2534 2507 2495 2502 2521 2410 2384 2381 2382 2377 2381 2382 2369 2374 2375 2372 2368 2369 2366 2368 2364 2376 2369 2355 2364 2357 2362 2367 2367 2370 2362 2362 2359 2356 2371 2357 2362 2357 2359 2359 2361 2358 2353 2355 2358 2351 2355 2361 2353 2353 2358 2360 2364 2352 2358 2362 2356 2357 2358 2357 2361 2364 2366 2407 2446 2444 2451 2436 2441 2460 2447 2441 2458 2443 2439 2464 2455 2446 2450 2453 2447 2447 2444 2444 2465 2445 2460 2440 2441 2477 2462 2461 2522 2468 2457 2466 2462 2475 2440 2504 2505 2550 2549 0 0
0 0 0 0 0 0 0 0 0 0 2655 0 2627 2618 2587 0 2546 2544 2496 2474 2400 2384 2376 2381 2383 2384 2379 2368 2376 2374 2373 2364 2370 2362 2359 2367 2356 2355 2361 2361 2359 2363 2361 2364 2359 2365 2361 2354 2367 2357 2354 2354 2357 2367 2362 2366 2358 2346 2350 2356 2358 2355 2352 2356 2353 2346 2357 2359 2355 2358 2356 2364 2346 2353 2358 2357 2354 2361 2379 2444 2421 2424 2453 2427 2439 2428 2439 2443 2450 2422 2451 2438 2439 2453 2459 2425 2442 2465 2471 2486 2458 2472 2452 2456 2454 2470 2446 2466 2447 2467 2442 0 0 2442 2463 0 0 0 0 0
0 0 0 0 0 0 0 0 0 0 0 0 0 0 0 0 0 2594 2602 0 2416 2396 2381 2378 2388 2386 2384 2380 2368 2377 2378 2368 2371 2377 2368 2374 2370 2375 2366 2363 2369 2381 2363 2368 2370 2370 2363 2361 2363 2371 2362 2364 2353 2363 2363 2355 2354 2365 2359 2356 2353 2354 2353 2358 2365 2350 2352 2364 2362 2367 2359 2371 2369 2363 2360 2367 2372 2365 2398 2448 2454 2468 2444 2459 2451 2458 2464 2473 2461 2460 2480 2467 2455 2472 2469 2469 2473 2483 2476 2475 2485 2511 2479 2483 2488 2479 2508 2474 2477 2478 2493 2477 2523 2502 2496 2546 2564 2505 2586 0
0 0 0 0 0 2807 2677 0 2611 2602 2582 2579 2566 2561 2509 2605 2520 2521 2520 2541 2410 2398 2395 2392 2384 2381 2381 2388 2378 2379 2376 2377 2368 2373 2375 2367 2373 2368 2361 2371 2367 2365 2366 2379 2366 2370 2376 2372 2372 2362 2361 2365 2365 2360 2363 2364 2363 2359 2367 2357 2363 2356 2359 2368 2364 2364 2358 2369 2359 2360 2362 2365 2365 2367 2358 2362 2373 2360 2413 2451 2452 2455 2454 2441 2445 2437 2447 2448 2450 2454 2456 2447 2448 2458 2443 2451 2452 2449 2446 2452 2432 2444 2458 2462 2435 2456 2452 2452 2450 2439 2435 2465 2457 2447 2464 2458 2442 2475 2462 2491
0 0 0 0 2684 2646 2582 2639 2532 2584 2552 2569 2526 2529 2522 2530 2512 2490 2480 2475 2412 2392 2394 2384 2386 2377 2375 2381 2384 2371 2379 2367 2368 2369 2373 2370 2371 2370 2364 2369 2370 2367 2369 2368 2373 2368 2363 2361 2365 2372 2368 2362 2361 2355 2363 2364 2350 2367 2359 2360 2363 2354 2354 2354 2360 2353 2352 2365 2362 2355 2366 2361 2360 2360 2358 2367 2361 2373 2414 2433 2436 2431 2452 2450 2436 2444 2436 2439 2455 2437 2451 2437 2438 2437 2438 2443 2430 2446 2436 2440 2447 2452 2449 2430 2423 2452 2453 2456 2436 2449 2455 2445 2444 2473 2466 2442 2464 2496 2463 2529
0 0 0 0 2700 2693 2665 2625 2580 2577 2542 2555 2525 2518 2545 2529 2511 2498 2482 2486 2424 2397 2389 2369 2381 2374 2372 2376 2375 2376 2370 2370 2371 2369 2371 2373 2375 2365 2368 2360 2373 2365 2372 2362 2366 2373 2368 2365 2362 2361 2365 2369 2359 2355 2359 2361 2362 2360 2353 2354 2352 2351 2349 2367 2352 2356 2354 2360 2373 2357 2360 2355 2358 2361 2363 2362 2363 2367 2408 2431 2428 2430 2436 2426 2437 2450 2431 2450 2424 2435 2428 2450 2443 2414 2436 2438 2434 2448 2461 2436 2423 2432 2449 2474 2440 2425 2424 2433 2442 2445 2445 2436 2441 2454 2446 2458 2454 2440 2494 2465
0 0 0 0 2674 2564 2605 2614 2555 2539 2532 2561 2503 2528 2511 2566 2515 2503 2496 2477 2404 2396 2384 2389 2371 2384 2386 2370 2383 2371 2377 2374 2371 2384 2367 2361 2366 2375 2369 2366 2364 2370 2370 2376 2380 2367 2367 2372 2363 2374 2371 2356 2367 2365 2358 2361 2363 2351 2356 2354 2358 2348 2357 2362 2362 2363 2362 2358 2359 2360 2360 2360 2361 2363 2360 2365 2365 2366 2432 2446 2453 2452 2430 2440 2447 2447 2444 2436 2441 2435 2447 2432 2441 2445 2450 2443 2452 2440 2456 2439 2451 2459 2444 2463 2456 2467 2443 2437 2449 2463 2439 2462 2444 2453 2445 2480 2473 2452 2466 2512
0 0 0 0 0 0 0 0 2708 2651 2607 0 2590 2582 2611 2694 2611 2550 2531 2533 2433 2387 2388 2396 2388 2386 2391 2380 2386 2382 2379 2374 2378 2377 2368 2377 2372 2378 2363 2370 2373 2380 2362 2365 2376 2369 2372 2367 2372 2379 2365 2363 2378 2367 2362 2366 2358 2366 2363 2362 2367 2360 2364 2362 2358 2359 2366 2362 2364 2368 2366 2371 2363 2365 2353 2361 2368 2367 2412 2443 2471 2446 2456 2461 2459 2471 2461 2474 2478 2485 2460 2469 2454 2487 2475 2466 2475 2489 2460 2533 2478 2506 2510 2510 2515 2470 2503 2516 2499 2490 2515 0 2454 2520 0 0 0 0 0 0
0 0 0 0 0 0 0 0 0 0 0 0 0 0 0 0 0 2594 2516 2524 2405 2396 2377 2388 2373 2384 2389 2386 2372 2375 2379 2360 2375 2378 2373 2371 2373 2375 2366 2376 2369 2364 2372 2375 2364 2361 2370 2370 2364 2365 2367 2369 2364 2363 2370 2360 2368 2364 2356 2364 2360 2363 2359 2360 2359 2354 2363 2364 2368 2363 2363 2372 2363 2370 2365 2358 2355 2374 2383 2450 2462 2436 2447 2470 2437 2458 2463 2457 2464 2457 2446 2450 2466 2470 2458 2445 2461 2460 2480 2427 2439 2501 2456 2500 2452 2438 2483 2409 2443 2484 2453 0 0 0 0 0 0 0 0 0
0 0 0 0 0 0 0 0 0 0 0 0 0 0 0 0 0 2554 2561 2482 2429 2395 2389 2388 2394 2383 2387 2384 2379 2372 2380 2382 2372 2365 2362 2373 2369 2366 2370 2362 2374 2373 2369 2368 2378 2371 2364 2364 2365 2365 2362 2366 2371 2367 2369 2357 2365 2366 2359 2356 2373 2361 2360 2358 2357 2364 2362 2356 2356 2364 2356 2363 2354 2357 2364 2361 2368 2364 2422 2450 2427 2447 2451 2448 2445 2447 2455 2458 2458 2457 2454 2434 2442 2467 2465 2437 2440 2440 2452 2443 2438 2452 2449 2442 2462 2441 2460 2467 2438 2439 2468 2460 2457 2459 2456 2471 2498 2499 2472 2522
0 0 0 0 0 2733 2675 2696 2614 2561 2567 2598 2555 2530 2515 2562 2538 2515 2520 2509 2434 2396 2397 2389 2386 2370 2387 2389 2386 2376 2378 2383 2389 2382 2374 2379 2376 2380 2384 2382 2373 2383 2372 2367 2372 2375 2372 2374 2367 2367 2372 2370 2374 2370 2359 2366 2370 2365 2368 2370 2350 2366 2360 2367 2357 2363 2362 2363 2371 2362 2362 2368 2367 2365 2373 2363 2364 2368 2436 2449 2456 2452 2454 2444 2457 2445 2455 2454 2453 2453 2451 2442 2448 2457 2448 2452 2444 2463 2453 2465 2443 2445 2458 2465 2436 2451 2457 2457 2446 2460 2461 2461 2449 2452 2445 2470 2471 2469 2467 2543
0 0 2715 0 2681 2704 2659 2675 2582 2567 2568 2584 2549 2532 2538 2575 2536 2525 2516 2493 2435 2405 2386 2395 2390 2382 2385 2385 2380 2387 2377 2372 2377 2382 2366 2368 2368 2374 2379 2374 2374 2373 2374 2374 2368 2376 2373 2371 2368 2375 2367 2379 2373 2367 2368 2364 2363 2370 2363 2367 2364 2367 2368 2368 2363 2360 2364 2362 2367 2369 2364 2366 2370 2365 2359 2375 2369 2367 2413 2451 2440 2452 2452 2459 2457 2460 2461 2453 2453 2450 2447 2429 2449 2454 2437 2448 2451 2463 2441 2435 2445 2460 2443 2469 2456 2450 2449 2455 2457 2461 2467 2460 2447 2434 2508 2504 2510 2467 2463 2506
0 0 0 0 2686 2756 2637 2695 2634 2578 2609 2519 2559 2534 2545 2541 2505 2491 2527 2538 2441 2405 2391 2391 2390 2384 2372 2391 2383 2389 2370 2379 2393 2384 2392 2381 2375 2369 2382 2379 2384 2371 2378 2381 2373 2370 2367 2372 2366 2378 2370 2374 2367 2356 2368 2366 2370 2368 2371 2370 2368 2359 2358 2365 2367 2368 2362 2364 2370 2372 2364 2364 2367 2371 2368 2375 2375 2378 2406 2452 2442 2441 2452 2449 2440 2463 2448 2444 2450 2439 2447 2447 2450 2444 2460 2437 2447 2459 2454 2454 2449 2467 2468 2460 2449 2476 2443 2452 2446 2460 2435 2443 2455 2434 2439 2493 2468 2504 2534 2455
0 0 2790 2785 2631 2596 2613 2647 2563 2548 2541 2597 2524 2542 2516 2551 2518 2509 2498 2512 2446 2391 2399 2393 2380 2383 2383 2384 2380 2383 2386 2383 2372 2372 2365 2375 2379 2371 2373 2372 2384 2381 2376 2377 2374 2373 2368 2376 2370 2372 2362 2368 2370 2368 2367 2354 2363 2365 2365 2363 2356 2370 2371 2366 2366 2361 2372 2364 2370 2360 2361 2369 2370 2372 2367 2362 2368 2372 2423 2457 2449 2447 2442 2444 2447 2453 2440 2449 2459 2447 2462 2459 2449 2458 2456 2437 2467 2441 2448 2443 2450 2448 2451 2436 2438 2459 2466 2467 2449 2442 2460 2435 2447 2442 2437 2443 2459 2480 2473 2519
0 0 0 0 0 0 0 0 2696 2637 2626 0 2628 2567 2567 2652 2582 2558 2532 2538 2477 2401 2388 2392 2402 2391 2392 2393 2370 2388 2381 2374 2377 2379 2370 2388 2382 2377 2389 2378 2377 2379 2371 2368 2371 2372 2373 2370 2372 2371 2374 2378 2370 2368 2367 2362 2363 2363 2372 2364 2360 2366 2369 2370 2374 2370 2359 2369 2366 2370 2374 2364 2370 2367 2380 2365 2371 2363 2405 2439 2459 2463 2480 2470 2463 2460 2485 2438 2449 2459 2452 2450 2479 2498 2479 2490 2476 2465 2429 2476 2472 2516 2517 2490 2494 2549 2481 2488 2457 2495 2479 0 0 0 0 0 0 0 0 0
0 0 0 0 0 0 0 0 0 0 0 0 0 0 0 0 0 0 2627 0 2435 2435 2409 2400 2405 2399 2396 2384 2384 2388 2393 2398 2391 2371 2391 2389 2381 2376 2374 2382 2382 2390 2374 2372 2385 2377 2375 2381 2378 2378 2383 2369 2379 2375 2373 2375 2373 2376 2369 2373 2363 2368 2374 2375 2372 2381 2377 2375 2363 2368 2361 2376 2374 2378 2368 2378 2368 2372 2400 2460 2460 2471 2474 2463 2470 2434 2460 2476 2444 2454 2462 2474 2500 2486 2489 2506 2462 2467 2474 2483 2515 2532 2533 0 2518 2481 2491 2447 2473 2505 0 0 0 0 0 0 0 0 0 0
0 0 0 0 0 0 0 0 0 0 0 0 0 0 0 0 0 0 0 0 2420 2409 2384 2387 2391 2393 2380 2392 2394 2373 2382 2388 2382 2384 2389 2378 2377 2376 2379 2372 2377 2375 2376 2370 2376 2378 2379 2370 2374 2382 2368 2368 2371 2377 2368 2366 2364 2367 2367 2368 2373 2365 2366 2372 2363 2363 2364 2367 2367 2363 2373 2370 2365 2362 2363 2376 2371 2372 2358 2370 2362 2369 2372 2372 2377 2381 2379 2383 2367 2357 2355 2365 2399 2379 2362 2378 2372 2351 2385 2380 2375 2368 2374 2359 2369 2358 2369 2361 2373 2373 2371 2338 2357 2377 2371 2360 2359 2415 2366 2354
0 0 0 0 0 0 0 2579 2486 2513 2547 2524 2513 2493 2538 2506 2496 2439 2460 2422 2414 2398 2403 2393 2388 2395 2383 2379 2382 2378 2384 2389 2387 2381 2384 2378 2385 2373 2377 2372 2382 2377 2372 2379 2379 2377 2376 2373 2373 2383 2380 2369 2373 2371 2362 2371 2376 2370 2372 2381 2370 2367 2360 2371 2370 2372 2365 2367 2367 2372 2366 2372 2373 2371 2365 2369 2360 2368 2369 2359 2362 2369 2380 2383 2370 2361 2388 2383 2371 2359 2367 2382 2366 2402 2361 2382 2394 2403 2393 2412 2405 2386 2368 2376 2389 2368 2371 2362 2393 2405 2424 2387 0 2357 0 0 0 0 2418 0
0 0 0 0 0 0 2574 0 2546 2627 2643 2642 2595 2632 2553 2529 2541 2453 2472 2429 2409 2409 2398 2405 2385 2392 2395 2392 2393 2384 2387 2382 2387 2377 2373 2377 2373 2380 2384 2372 2374 2376 2372 2383 2378 2373 2366 2380 2377 2379 2377 2372 2378 2369 2374 2368 2371 2374 2365 2379 2362 2370 2364 2367 2372 2364 2376 2373 2362 2362 2360 2370 2363 2370 2362 2366 2377 2374 2366 2376 2380 2368 2372 2377 2372 2383 2378 2362 2370 2365 2362 2368 2357 2380 2372 2357 2376 2365 2360 2361 2398 2366 2384 2373 2363 2376 2358 2369 2359 2380 2396 2393 2360 2395 2371 2382 2372 2379 2398 2379
0 0 0 2647 2618 2571 2488 2486 2482 2491 2464 2439 2437 2452 2452 2459 2423 2440 2425 2424 2431 2429 2417 2408 2407 2402 2412 2398 2401 2384 2398 2392 2396 2388 2386 2390 2393 2382 2389 2386 2384 2385 2395 2382 2383 2380 2382 2378 2377 2384 2369 2379 2384 2368 2382 2371 2371 2384 2376 2363 2370 2387 2375 2368 2374 2371 2378 2370 2382 2368 2378 2378 2375 2380 2370 2379 2380 2379 2376 2379 2373 2390 2373 2373 2378 2379 2384 2375 2376 2377 2381 2382 2375 2383 2375 2376 2372 2380 2380 2385 2385 2375 2371 2371 2370 2388 2372 2369 2377 2379 2377 2379 2390 2373 2374 2368 2397 2380 2427 2417
0 0 2606 2591 2581 2578 2498 2470 2443 2459 2434 2440 2437 2417 2447 2434 2414 2428 2428 2421 2427 2422 2407 2423 2395 2393 2407 2402 2398 2389 2397 2400 2402 2405 2394 2386 2383 2391 2383 2381 2381 2375 2382 2370 2376 2382 2380 2382 2378 2375 2383 2388 2380 2371 2377 2384 2365 2373 2372 2383 2375 2377 2380 2374 2367 2380 2369 2370 2381 2374 2371 2373 2373 2370 2373 2367 2376 2376 2376 2378 2374 2374 2368 2377 2369 2373 2375 2371 2370 2371 2369 2369 2363 2367 2365 2376 2371 2376 2371 2366 2368 2372 2372 2367 2380 2378 2360 2374 2365 2378 2364 2386 2375 2374 2374 2366 2369 2372 2373 2434
0 0 2600 2540 2525 2516 2451 2477 2465 2430 2441 2422 2418 2414 2427 2415 2405 2405 2417 2409 2416 2407 2399 2421 2412 2391 2385 2390 2380 2402 2385 2396 2392 2392 2397 2380 2386 2376 2393 2384 2374 2378 2385 2372 2374 2377 2381 2378 2374 2378 2371 2374 2378 2373 2373 2372 2371 2367 2367 2372 2367 2363 2365 2365 2361 2367 2373 2367 2372 2377 2367 2365 2370 2382 2371 2366 2373 2377 2373 2374 2363 2379 2367 2363 2372 2364 2363 2369 2361 2369 2367 2356 2364 2370 2364 2367 2356 2358 2363 2371 2361 2368 2362 2370 2360 2357 2367 2373 2363 2362 2362 2373 2358 2375 2370 2364 2353 2353 2370 2374
0 0 2704 2517 2544 2499 2519 2497 2463 2457 2437 2430 2415 2422 2428 2425 2425 2420 2410 2423 2403 2410 2408 2414 2412 2399 2401 2401 2394 2399 2392 2385 2391 2388 2392 2388 2392 2383 2381 2382 2380 2384 2374 2376 2382 2373 2374 2381 2379 2382 2387 2370 2381 2371 2380 2372 2369 2378 2372 2370 2369 2369 2373 2369 2383 2372 2368 2374 2374 2378 2368 2376 2379 2378 2373 2371 2372 2382 2378 2378 2377 2370 2375 2377 2372 2365 2371 2365 2371 2376 2370 2374 2360 2363 2374 2371 2366 2376 2372 2372 2369 2371 2368 2371 2382 2376 2372 2371 2364 2367 2368 2361 2369 2372 2371 2388 2375 2381 2377 2405
0 0 2589 2538 2584 2498 2522 2483 2454 2457 2436 2436 2427 2431 2422 2419 2420 2404 2414 2407 2423 2410 2396 2411 2396 2405 2384 2394 2393 2401 2394 2390 2396 2386 2390 2377 2380 2388 2380 2378 2380 2381 2379 2393 2384 2389 2377 2377 2373 2373 2375 2372 2371 2374 2372 2382 2364 2370 2370 2382 2366 2368 2378 2373 2368 2376 2368 2372 2375 2375 2366 2373 2373 2372 2376 2379 2377 2381 2375 2374 2374 2372 2375 2368 2360 2362 2369 2368 2362 2361 2366 2354 2378 2366 2364 2368 2363 2364 2373 2369 2362 2362 2374 2363 2361 2382 2367 2356 2363 2362 2357 2347 2374 2363 2360 2348 2369 2354 2375 2369
0 0 2657 2623 2583 2534 2508 2495 2466 2486 2441 2422 2443 2419 2407 2410 2437 2413 2426 2429 2413 2434 2419 2398 2405 2414 2406 2405 2409 2401 2403 2399 2394 2385 2380 2395 2384 2392 2389 2398 2388 2384 2376 2384 2388 2372 2375 2389 2370 2385 2382 2392 2385 2371 2374 2382 2384 2366 2374 2370 2369 2376 2366 2386 2378 2376 2386 2375 2365 2368 2374 2379 2377 2377 2371 2381 2374 2371 2376 2391 2373 2377 2376 2366 2361 2369 2365 2370 2374 2368 2365 2367 2372 2375 2381 2374 2382 2382 2370 2374 2374 2376 2371 2377 2364 2388 2377 2373 2371 2353 2372 2376 2359 2365 2371 2363 2358 2401 2377 2423
0 0 0 2603 2489 2528 2508 2467 2465 2443 2433 2439 2424 2422 2400 2413 2415 2406 2414 2395 2425 2427 2417 2408 2395 2411 2407 2401 2384 2399 2393 2408 2410 2388 2415 2392 2403 2383 2388 2388 2383 2379 2386 2383 2379 2391 2366 2380 2370 2391 2385 2378 2369 2373 2367 2375 2375 2377 2378 2369 2376 2365 2375 2370 2364 2376 2372 2369 2375 2371 2376 2370 2369 2364 2381 2374 2371 2375 2371 2368 2375 2370 2360 2367 2355 2376 2368 2370 2368 2372 2363 2362 2362 2365 2374 2369 2363 2376 2363 2366 2375 2361 2360 2370 2356 2375 2371 2360 2363 2360 2368 2360 2361 2348 2364 2374 2377 2374 2374 2405
0 0 0 2619 2526 2499 2502 2471 2434 2455 2432 2433 2425 2417 2427 2410 2407 2409 2424 2409 2426 2432 2413 2420 2412 2416 2405 2388 2405 2399 2400 2370 2397 2379 2383 2378 2387 2388 2376 2376 2391 2395 2380 2375 2396 2380 2380 2378 2370 2377 2379 2369 2352 2371 2378 2380 2376 2373 2367 2371 2365 2363 2369 2363 2366 2367 2364 2369 2369 2380 2367 2374 2377 2378 2369 2364 2376 2371 2366 2367 2366 2364 2362 2376 2368 2380 2371 2359 2354 2376 2360 2355 2369 2372 2365 2366 2364 2368 2377 2363 2362 2361 2373 2365 2373 2363 2358 2375 2369 2362 2368 2358 2364 2363 2355 2363 2370 2388 2383 2367
0 0 0 2687 2617 2576 2553 2533 2470 2487 2474 2442 2467 2462 2453 2419 2429 2442 2458 2448 2433 2430 2415 2412 2414 2412 2410 2419 2423 2396 2404 2405 2384 2384 2409 2408 2407 2399 2387 2389 2389 2384 2394 2393 2384 2390 2382 2398 2379 2379 2377 2382 2390 2380 2370 2367 2376 2374 2452 2384 2379 2384 2377 2374 2377 2382 2379 2370 2378 2376 2370 2373 2380 2369 2373 2381 2386 2371 2372 2380 2375 2371 2391 2374 2383 2381 2385 2370 2374 2361 2367 2382 2371 2373 2374 2364 2375 2368 2376 2381 2373 2365 2372 2378 2383 2381 2385 2376 2384 2385 2379 2384 2371 2373 2392 2395 2386 2394 2401 2428
0 0 0 0 0 2559 2553 2496 2531 2463 2459 2473 2456 2458 2453 2438 2446 2448 2417 2437 2422 2448 2422 2428 2439 2443 2426 2406 2404 2417 2390 2403 2391 2421 2405 2393 2377 2387 2378 2380 2394 2393 2367 2390 2386 2388 2379 2389 2392 2386 2385 2377 2386 2382 2373 2380 2382 2378 2376 2376 2372 2375 2385 2379 2373 2371 2369 2367 2381 2378 2382 2374 2371 2377 2368 2374 2385 2380 2374 2383 2378 2377 2381 2375 2366 2378 2384 2373 2364 2386 2367 2379 2372 2368 2382 2368 2366 2380 2373 2371 2369 2373 2366 2370 2371 2376 2367 2361 2371 2380 2362 2387 2371 2387 2373 2381 2380 2365 2380 2423
0 0 0 0 0 2647 2544 2548 2540 2498 2482 2463 2455 2490 2491 2482 2476 2421 2446 2453 2466 2446 2418 2416 2414 2433 2438 2413 2419 2392 2403 2400 2407 2416 2398 2401 2392 2389 2405 2394 2381 2384 2404 2397 2387 2386 2386 2386 2392 2385 2390 2376 2379 2394 2368 2371 2384 2380 2380 2380 2375 2374 2380 2371 2372 2374 2378 2379 2366 2369 2373 2392 2383 2386 2372 2377 2379 2372 2372 2380 2373 2367 2373 2375 2379 2368 2380 2372 2372 2371 2369 2377 2384 2367 2364 2368 2365 2367 2379 2366 2367 2375 2361 2368 2370 2380 2362 2373 2368 2371 2360 2351 2403 2394 2390 2379 2392 2405 2391 2429
0 0 0 0 0 0 2641 2556 2496 2534 2487 2511 2458 2461 2473 2468 2428 2446 2448 2428 2446 2491 2414 2432 2430 2416 2424 2424 2407 2422 2390 2396 2404 2410 2393 2389 2389 2413 2407 2409 2399 2384 2377 2383 2391 2383 2393 2381 2371 2371 2388 2389 2374 2378 2373 2394 2376 2381 2379 2378 2377 2362 2375 2389 2378 2369 2369 2366 2379 2373 2378 2373 2380 2375 2371 2371 2365 2379 2379 2374 2378 2377 2368 2365 2367 2377 2389 2356 2379 2367 2365 2381 2359 2375 2375 2370 2370 2360 2350 2368 2361 2356 2380 2360 2376 2380 2376 2370 2351 2360 2386 2363 2368 2398 2382 2372 2386 2373 2377 2440
0 0 0 0 0 0 0 2625 2641 2593 2523 2540 2446 2468 2472 2466 2516 2464 2462 2491 2509 2474 2465 2435 2425 2442 2432 2424 2435 2420 2424 2408 2410 2404 2415 2414 2409 2404 2399 2399 2385 2397 2391 2395 2397 2391 2391 2387 2386 2392 2400 2388 2378 2382 2378 2368 2365 2388 2373 2389 2378 2381 2382 2367 2377 2369 2356 2374 2384 2388 2366 2390 2387 2373 2371 2375 2375 2388 2378 2357 2378 2389 2370 2378 2381 2366 2383 2383 2371 2394 2382 2369 2371 2386 2374 2371 2384 2360 2382 2367 2383 2392 2357 2365 2384 2388 2384 2375 2382 2374 2369 2383 2390 2396 2392 2383 2407 2409 2419 2397
0 0 0 0 0 0 0 0 0 2556 2593 2550 2509 2470 2476 2454 2461 2469 2498 2445 2517 0 2464 2456 2441 2456 2456 2442 2452 2454 2402 2430 2342 2408 2422 2433 2402 2411 2399 2404 2420 2401 2391 2398 2378 2396 2393 2380 2398 2403 2378 2387 2390 2386 2387 2373 2391 2386 2393 2378 2393 2384 2371 2381 2377 2376 2399 2396 2378 2381 2377 2379 2385 2381 2393 2369 2393 2382 2391 2376 2381 2369 2382 2379 2388 2359 2378 2380 2390 2367 2380 2383 2385 2376 2359 2381 2391 2379 2390 2377 2382 2383 2379 2365 2376 2387 2380 2377 2375 2366 2378 2392 2414 2393 2383 2429 2378 2387 2429 2424
0 0 0 0 0 0 0 0 0 0 2556 2590 2527 2546 2460 2464 2467 2490 2519 2521 2440 0 2452 2443 2458 2400 2445 2434 2420 2427 2396 2380 2391 2404 2369 2398 2393 2376 2376 2377 2388 2367 2389 2391 2394 2376 2399 2398 2383 2395 2369 2371 2388 2373 2378 2373 2368 2366 2367 2380 2373 2378 2360 2366 2379 2373 2369 2368 2350 2361 2354 2354 2357 2352 2377 2358 2384 2354 2377 2372 2386 2352 2371 2369 2370 2369 2387 2374 2358 2353 2388 2363 2387 2353 2363 2376 2370 2383 2354 2351 2370 2373 2351 2372 2394 2389 2369 2392 2368 2359 2378 2374 2354 2385 2387 2361 2425 2398 2399 2418
0 0 0 0 0 0 0 0 0 0 0 0 0 2508 2496 2454 2486 0 0 0 0 0 0 0 0 0 2509 2379 2407 2425 2426 2441 2403 2391 2384 2393 2383 2395 2402 2368 2360 2378 2365 2392 2399 2405 2356 2395 2387 2389 2375 2372 2356 2366 2367 2372 2356 2381 2355 2368 2359 2392 2375 2357 2378 2371 2355 2375 2366 2361 2363 2369 2363 2379 2407 2385 2348 2369 2360 2366 2396 2372 2365 2368 2383 2398 2361 2362 2366 2392 2386 2362 2361 2362 2346 2361 2379 2374 2351 2363 2368 2353 2358 2350 2368 2334 2385 2368 2341 2371 2365 2370 2378 2357 2361 2389 2393 2376 2422 2499
0 0 0 0 0 0 0 0 0 0 0 0 0 0 0 0 0 0 0 0 0 0 0 0 0 0 0 0 0 0 2448 2397 2420 2397 2400 2447 2422 2452 2386 2408 2397 2401 2384 2395 2378 2383 2391 2382 2423 2395 2362 2363 2368 2371 2388 2367 2391 2379 2360 2387 2405 2345 2364 2388 2362 2361 2398 2374 2384 2352 2360 2374 2367 2377 2361 2381 2395 2392 2398 2404 2361 2359 2385 2359 2366 2379 2387 2366 2374 2388 2374 2370 2353 2385 2398 2374 2384 2360 2352 2396 2382 2360 2410 2364 2397 2370 2366 2372 2396 2388 2395 2402 2383 2392 2395 2441 2428 2408 2418 0
0 0 0 0 0 0 0 0 0 0 0 0 0 0 0 0 0 0 0 0 0 0 0 0 0 0 0 0 0 0 0 0 0 0 0 0 0 0 0 2428 2419 2447 2437 2409 2376 2412 2384 2415 2407 2451 2414 2401 2404 2381 2363 2399 2414 2366 2392 2375 2379 2369 2377 2403 2393 2379 2401 2377 2371 2376 2353 2387 2401 2392 2395 2393 2374 2369 2399 2386 2396 2388 2365 2395 2371 2369 2386 2383 2363 2378 2390 2376 2390 2379 2409 2407 2367 2372 2390 2364 2406 2407 2394 2388 2408 2406 2396 2392 2404 2408 2378 2404 2427 2410 2385 2446 2411 2519 0 0
0 0 0 0 0 0 0 0 0 0 0 0 0 0 0 0 0 0 0 0 0 0 0 0 0 0 0 0 0 0 0 0 0 0 0 0 0 0 0 0 0 2403 2396 0 2418 2422 2397 2408 2418 0 0 2417 2413 2406 2412 2427 2390 2394 2423 2399 2367 2385 2401 2379 2408 2430 2386 2378 2386 2401 2354 2415 2378 2381 2394 2382 2403 2409 2384 2411 2417 2400 2389 2398 2371 2376 2388 2396 2394 2395 2410 2396 2389 2394 2380 2388 2404 2354 2440 2385 2381 2377 2429 2377 2386 2384 2398 2390 2393 2383 2379 2436 2424 2417 2412 2429 2484 0 0 0
0 0 0 0 0 0 0 0 0 0 0 0 0 0 0 0 0 0 0 0 0 0 0 0 0 0 0 0 0 0 0 0 0 0 0 0 0 0 0 0 0 0 0 0 0 0 0 0 0 0 0 0 0 0 0 0 0 2365 2373 2352 2365 2389 2338 2374 2351 0 0 2372 0 0 0 2353 2389 2395 2392 2386 2382 2419 2384 2401 2394 2376 2394 2375 2395 2351 2406 2371 2415 2397 2336 2328 2435 2348 2402 2393 2419 2344 2400 2384 2377 2398 2402 2397 2429 0 2389 2353 2401 2390 2427 2379 2420 2450 2402 2448 0 0 0 0
0 0 0 0 0 0 0 0 0 0 0 0 0 0 0 0 0 0 0 0 0 0 0 0 0 0 0 0 0 0 0 0 0 0 0 0 0 0 0 0 0 0 0 0 0 0 0 0 0 0 0 0 0 0 0 0 0 0 0 0 0 0 0 0 0 0 0 0 0 0 0 0 0 0 2364 2363 0 0 0 2361 0 2363 2390 2414 2383 2364 2376 2361 2356 0 2424 0 0 2406 2414 2324 2397 2403 2384 2420 2380 2402 2383 0 0 0 0 2490 2423 2382 2442 2408 0 0 0 0 0 0 0 0
0 0 0 0 0 0 0 0 0 0 0 0 0 0 0 0 0 0 0 0 0 0 0 0 0 0 0 0 0 0 0 0 0 0 0 0 0 0 0 0 0 0 0 0 0 0 0 0 0 0 0 0 0 0 0 0 0 0 0 0 0 0 0 0 0 0 0 0 0 0 0 0 0 0 0 0 0 0 0 0 0 0 0 0 0 0 0 0 0 0 0 0 0 0 0 2382 0 0 0 0 2389 2353 2371 0 0 0 0 0 0 2432 2452 0 0 0 0 0 0 0 0 0
0 0 0 0 0 0 0 0 0 0 0 0 0 0 0 0 0 0 0 0 0 0 0 0 0 0 0 0 0 0 0 0 0 0 0 0 0 0 0 0 0 0 0 0 0 0 0 0 0 0 0 0 0 0 0 0 0 0 0 0 0 0 0 0 0 0 0 0 0 0 0 0 0 0 0 0 0 0 0 0 0 0 0 0 0 0 0 0 0 0 0 0 0 0 0 0 0 0 0 0 0 0 0 0 0 0 0 0 0 0 0 0 0 0 0 0 0 0 0 0
0 0 0 0 0 0 0 0 0 0 0 0 0 0 0 0 0 0 0 0 0 0 0 0 0 0 0 0 0 0 0 0 0 0 0 0 0 0 0 0 0 0 0 0 0 0 0 0 0 0 0 0 0 0 0 0 0 0 0 0 0 0 0 0 0 0 0 0 0 0 0 0 0 0 0 0 0 0 0 0 0 0 0 0 0 0 0 0 0 0 0 0 0 0 0 0 0 0 0 0 0 0 0 0 0 0 0 0 0 0 0 0 0 0 0 0 0 0 0 0
