0 0 2966 2755 0 0 0 0 0 0 0 0 0 2641 2478 2449 2431 2460 2507 2467 2400 2447 2501 2473 2480 2376 2424 2480 2429 2402 2439 2425 2347 0 0 2648 2475 2497 0 0 2384 2351 2338 2344 2323 2376 2417 2342 2364 2361 2367 2359 2346 2321 2363 2344 2361 2348 2334 2283 2346 2328 2354 2342 2350 2343 2342 2327 2347 2333 2350 2343 2322 2319 2328 2302 2338 2346 2358 2340 2372 2361 2327 2348 2371 2336 2365 2317 2341 2353 2401 2383 2358 2426 0 0 2455 2370 2330 2344 2309 2401 2359 2387 2397 2381 2352 2374 2476 2486 2377 0 0 0 0 0 0 0 0 0
0 0 2690 2496 0 2830 2646 2547 2508 2526 2479 2633 2532 2457 2427 2427 2407 2442 2380 2383 2414 2350 2413 2414 2389 2458 2441 2367 2435 2396 2341 2373 2373 2409 0 0 2503 2476 2541 0 2348 2299 2338 2356 2353 2345 2339 2369 2346 2313 2377 2346 2333 2367 2327 2325 2333 2356 2357 2315 2375 2367 2334 2347 2323 2362 2302 2307 2366 2334 2363 2320 2309 2338 2360 2336 2338 2346 2336 2349 2317 2373 2339 2343 2321 2326 2348 2350 2310 2341 2360 2310 2343 2375 2359 2293 2402 2397 2355 2334 2331 2338 2336 2301 2345 2334 2349 2371 2319 2380 2373 2356 0 0 0 0 0 0 0 0
0 2744 2640 2615 2640 2547 2562 2561 2402 2471 2512 2577 2469 2402 2446 2462 2422 2388 2412 2408 2441 2426 2512 2439 2390 2457 2429 2410 2393 2385 2331 2392 2399 2393 2428 0 0 2410 2429 2381 2341 2380 2347 2385 2362 2353 2341 2337 2368 2339 2357 2356 2350 2352 2328 2365 2330 2331 2327 2314 2373 2356 2340 2302 2344 2336 2375 2354 2327 2357 2336 2374 2320 2346 2339 2331 2334 2362 2344 2349 2331 2347 2353 2324 2346 2301 2343 2330 2334 2362 2333 2370 2328 2376 2379 2370 2329 2347 2341 2372 2350 2312 2363 2368 2355 2320 2402 2344 2379 2409 2328 2371 2293 2442 0 0 0 0 0 0
2886 2754 2806 2797 2650 2505 2472 2476 2479 2478 2424 2548 2462 2442 2423 2439 2478 2392 2440 2389 2417 2396 2438 2450 2418 2393 2397 2390 2370 2370 2362 2385 2363 2426 2371 2389 2372 2339 2338 2366 2386 2392 2332 2346 2359 2325 2339 2334 2365 2378 2368 2376 2316 2350 2347 2351 2365 2325 2352 2346 2331 2329 2309 2335 2314 2341 2338 2339 2330 2337 2333 2354 2343 2332 2356 2342 2322 2311 2355 2326 2371 2322 2347 2323 2338 2343 2343 2344 2344 2328 2344 2310 2328 2367 2382 2350 2354 2355 2325 2334 2367 2346 2355 2389 2377 2323 2359 2340 2355 2363 2386 2381 2348 2397 0 0 0 0 0 0
2830 2799 2498 2517 2498 2466 2481 2447 2428 2459 2454 2514 2442 2440 2391 2418 2386 2391 2390 2387 2397 2394 2424 2356 2365 2358 2377 2364 2390 2334 2353 2317 2381 2327 2371 2343 2396 2333 2307 2372 2329 2338 2340 2339 2354 2336 2311 2321 2325 2336 2349 2350 2357 2332 2353 2328 2356 2342 2319 2354 2303 2336 2315 2326 2308 2319 2317 2340 2324 2343 2340 2321 2326 2347 2342 2325 2333 2349 2337 2341 2314 2387 2314 2356 2312 2313 2364 2313 2323 2329 2332 2327 2330 2334 2320 2312 2308 2316 2345 2339 2307 2367 2324 2339 2301 2306 2357 2355 2374 2335 2341 2331 2321 2399 2447 2342 0 0 0 0
2682 2684 2595 2536 2566 2483 2489 2441 2447 2471 2465 2441 2444 2400 2416 2385 2404 2416 2438 2410 2427 2416 2415 2405 2385 2342 2349 2368 2368 2387 2358 2367 2376 2352 2373 2362 2351 2356 2344 2339 2332 2354 2364 2355 2346 2355 2336 2356 2336 2330 2352 2377 2335 2353 2356 2370 2330 2336 2335 2328 2347 2345 2350 2332 2335 2349 2318 2351 2334 2357 2338 2330 2323 2322 2350 2347 2351 2355 2344 2377 2378 2358 2329 2368 2342 2326 2348 2345 2334 2349 2326 2340 2311 2340 2329 2344 2375 2337 2328 2377 2324 2340 2326 2331 2330 2354 2342 2370 2347 2380 2394 2366 2332 2422 2445 2420 2389 0 0 0
2529 2572 2483 2485 2488 2462 2460 2433 2424 2419 2413 2427 2413 2368 2402 2383 2427 2396 2399 2416 2376 2384 2398 2407 2402 2368 2386 2361 2387 2385 2367 2344 2378 2356 2340 2384 2367 2355 2354 2351 2349 2353 2368 2341 2359 2349 2352 2368 2378 2342 2366 2355 2353 2356 2344 2328 2345 2334 2345 2351 2354 2339 2348 2337 2337 2353 2355 2341 2350 2346 2349 2350 2347 2340 2345 2366 2346 2337 2345 2373 2372 2342 2339 2337 2343 2347 2317 2339 2331 2345 2333 2336 2327 2327 2349 2317 2349 2334 2346 2349 2327 2326 2318 2323 2355 2339 2342 2337 2344 2378 2359 2355 2363 2358 2393 2378 2359 0 0 0
2664 2549 2502 2523 2502 2452 2426 2404 2441 2401 2420 2420 2419 2415 2409 2390 2412 2395 2411 2405 2396 2407 2396 2385 2382 2383 2352 2375 2373 2372 2387 2361 2376 2354 2357 2366 2384 2348 2364 2368 2364 2372 2348 2345 2363 2354 2338 2366 2355 2352 2351 2344 2365 2352 2354 2341 2343 2344 2340 2350 2367 2341 2352 2341 2346 2340 2334 2344 2355 2338 2339 2343 2336 2351 2345 2344 2358 2356 2337 2332 2368 2338 2332 2328 2353 2346 2355 2339 2356 2362 2340 2364 2342 2346 2342 2335 2345 2331 2346 2346 2344 2333 2332 2365 2347 2351 2348 2343 2374 2333 2344 2339 2345 2389 2358 2391 2445 2504 0 0
2569 2506 2458 2465 2473 2429 2406 2402 2423 2414 2423 2421 2414 2412 2411 2408 2393 2390 2390 2393 2405 2390 2415 2398 2374 2389 2367 2378 2376 2377 2382 2382 2376 2374 2359 2367 2364 2356 2357 2379 2361 2355 2355 2350 2377 2360 2367 2357 2354 2364 2361 2346 2351 2359 2345 2371 2349 2340 2349 2358 2350 2333 2348 2345 2331 2340 2349 2337 2330 2339 2342 2339 2343 2348 2352 2358 2348 2368 2348 2352 2352 2335 2344 2353 2329 2340 2343 2362 2336 2342 2361 2343 2346 2352 2341 2349 2356 2323 2339 2346 2323 2356 2351 2346 2349 2373 2334 2343 2334 2381 2383 2377 2394 2314 2386 2370 2415 2368 2374 2488
2570 2564 2485 2431 2414 2420 2385 2405 2424 2420 2403 2407 2405 2384 2405 2390 2399 2370 2366 2383 2392 2381 2384 2401 2364 2374 2374 2366 2376 2372 2342 2354 2352 2358 2355 2346 2355 2377 2345 2355 2355 2348 2340 2337 2352 2362 2349 2354 2349 2353 2338 2355 2351 2335 2336 2350 2362 2344 2334 2346 2359 2334 2329 2345 2338 2334 2347 2351 2336 2333 2337 2327 2351 2358 2339 2333 2368 2342 2337 2356 2347 2346 2332 2339 2334 2338 2331 2331 2345 2331 2328 2327 2338 2334 2346 2338 2317 2344 2335 2346 2339 2336 2333 2331 2348 2342 2323 2346 2348 2335 2344 2337 2331 2364 2418 2343 2321 2387 2326 2495
2453 2520 2468 2448 2416 2412 2405 2404 2415 2395 2407 2387 2380 2381 2390 2395 2385 2394 2389 2389 2390 2381 2393 2403 2376 2374 2380 2354 2371 2372 2368 2381 2366 2362 2366 2343 2354 2374 2343 2371 2361 2344 2347 2349 2354 2330 2353 2353 2351 2351 2357 2359 2335 2356 2333 2346 2350 2345 2353 2357 2345 2344 2331 2344 2347 2351 2344 2331 2332 2332 2339 2354 2345 2345 2359 2346 2344 2346 2342 2343 2361 2333 2334 2333 2342 2329 2335 2331 2359 2325 2349 2337 2330 2349 2350 2349 2351 2325 2334 2335 2326 2320 2349 2341 2344 2356 2332 2322 2323 2333 2342 2348 2340 2312 2354 2399 2336 2365 2363 2445
2470 2471 2492 2439 2413 2427 2427 2413 2407 2415 2414 2394 2402 2395 2389 2399 2389 2393 2386 2375 2391 2396 2406 2369 2367 2370 2375 2378 2371 2383 2372 2372 2363 2355 2350 2360 2368 2368 2355 2357 2345 2364 2353 2342 2350 2359 2352 2350 2360 2338 2371 2349 2340 2354 2346 2344 2340 2351 2349 2357 2346 2352 2353 2344 2346 2345 2347 2346 2357 2343 2353 2331 2344 2344 2352 2359 2334 2368 2328 2350 2342 2340 2342 2341 2345 2331 2352 2342 2362 2360 2327 2345 2336 2351 2335 2361 2339 2339 2325 2322 2338 2332 2347 2355 2348 2348 2359 2344 2326 2357 2343 2340 2358 2325 2385 2369 2367 2352 2456 2418
2483 2470 2431 2427 2451 2420 2411 2409 2400 2391 2418 2426 2407 2414 2405 2388 2386 2392 2391 2391 2387 2404 2389 2386 2382 2390 2376 2372 2376 2365 2384 2365 2360 2371 2359 2365 2370 2366 2364 2356 2367 2360 2357 2360 2355 2363 2357 2349 2366 2350 2360 2377 2360 2348 2355 2336 2346 2358 2344 2348 2341 2336 2349 2339 2346 2346 2342 2366 2347 2336 2344 2343 2335 2351 2346 2363 2346 2332 2339 2356 2356 2343 2344 2368 2346 2346 2358 2349 2346 2343 2327 2338 2349 2343 2334 2325 2347 2347 2346 2338 2332 2330 2331 2335 2349 2336 2323 2349 2366 2359 2353 2338 2285 2366 2376 2378 2382 2473 2421 2472
2523 2497 2424 2435 2447 2417 2407 2429 2404 2408 2416 2390 2404 2403 2399 2379 2384 2394 2388 2379 2380 2389 2390 2383 2378 2382 2364 2373 2365 2375 2376 2374 2376 2363 2387 2342 2358 2364 2345 2350 2357 2349 2347 2355 2358 2368 2353 2345 2351 2352 2364 2355 2355 2342 2352 2345 2353 2343 2344 2345 2356 2339 2348 2335 2347 2341 2344 2335 2357 2339 2351 2340 2354 2346 2338 2346 2335 2350 2345 2350 2346 2354 2331 2342 2335 2330 2346 2345 2352 2342 2334 2334 2337 2344 2344 2331 2345 2325 2336 2337 2347 2347 2336 2331 2338 2351 2345 2350 2367 2358 2333 2362 2340 2350 2351 2368 2361 2387 2362 2347
2498 2468 2428 2401 2413 2394 2395 2422 2404 2399 2413 2412 2427 2381 2391 2391 2395 2391 2405 2412 2385 2399 2388 2387 2394 2397 2383 2367 2376 2373 2390 2366 2360 2375 2367 2364 2367 2361 2378 2365 2358 2351 2351 2366 2359 2355 2361 2349 2360 2354 2357 2347 2353 2357 2335 2352 2352 2356 2339 2358 2348 2351 2337 2360 2355 2348 2336 2340 2357 2347 2339 2350 2344 2355 2346 2348 2343 2349 2335 2354 2338 2345 2342 2344 2354 2346 2359 2347 2348 2341 2339 2324 2346 2341 2332 2343 2344 2334 2337 2344 2349 2340 2343 2350 2330 2334 2337 2350 2354 2351 2349 2327 2329 2346 2376 2329 2331 2308 2348 2445
2459 2448 2457 2449 2423 2434 2406 2409 2395 2397 2401 2385 2387 2386 2389 2403 2389 2383 2396 2409 2392 2380 2386 2375 2391 2382 2372 2374 2372 2371 2372 2362 2371 2376 2387 2368 2352 2359 2357 2364 2358 2357 2357 2365 2355 2360 2363 2363 2357 2353 2366 2356 2352 2354 2362 2377 2357 2349 2356 2350 2351 2353 2365 2352 2358 2351 2351 2364 2353 2343 2353 2352 2353 2345 2331 2352 2340 2359 2344 2346 2358 2341 2363 2348 2354 2367 2355 2342 2342 2355 2365 2360 2350 2337 2334 2338 2337 2350 2352 2342 2340 2347 2353 2339 2337 2349 2339 2338 2350 2350 2348 2338 2341 2355 2415 2339 2383 2415 2387 2382
2409 2423 2437 2409 2392 2411 2394 2399 2386 2394 2392 2394 2375 2384 2379 2373 2385 2385 2377 2376 2377 2391 2388 2363 2370 2379 2365 2365 2372 2376 2361 2368 2365 2369 2365 2355 2360 2375 2363 2364 2364 2360 2355 2354 2362 2355 2356 2345 2356 2349 2342 2350 2352 2345 2349 2350 2345 2345 2350 2349 2352 2344 2352 2341 2348 2352 2340 2356 2351 2334 2342 2331 2337 2354 2344 2342 2343 2343 2342 2342 2349 2349 2337 2334 2340 2345 2345 2347 2343 2349 2345 2344 2341 2350 2342 2338 2329 2333 2339 2337 2331 2337 2342 2334 2337 2328 2339 2328 2333 2343 2354 2342 2333 2351 2330 2326 2347 2331 2338 2405
2427 2398 2433 2415 2392 2393 2385 2395 2385 2395 2384 2382 2379 2372 2370 2383 2384 2383 2385 2374 2377 2376 2379 2380 2367 2368 2373 2371 2370 2379 2371 2375 2360 2366 2357 2360 2358 2370 2357 2365 2358 2352 2357 2353 2353 2347 2356 2354 2346 2346 2346 2349 2342 2352 2342 2344 2342 2336 2342 2348 2342 2338 2343 2335 2339 2345 2352 2347 2331 2347 2343 2351 2333 2345 2350 2346 2338 2337 2334 2346 2340 2346 2342 2341 2343 2334 2346 2338 2334 2339 2332 2339 2342 2336 2344 2324 2327 2329 2337 2352 2346 2335 2338 2341 2333 2342 2319 2326 2332 2352 2343 2308 2347 2328 2315 2324 2333 2299 2345 2345
2427 2426 2423 2412 2374 2388 2393 2398 2393 2388 2402 2383 2378 2385 2382 2380 2381 2381 2390 2396 2392 2375 2390 2394 2373 2368 2370 2369 2369 2368 2371 2373 2354 2361 2365 2364 2347 2353 2361 2353 2360 2357 2350 2348 2350 2357 2351 2349 2357 2355 2358 2364 2350 2344 2344 2352 2340 2348 2351 2333 2344 2340 2350 2346 2357 2343 2338 2343 2345 2340 2345 2340 2342 2361 2347 2342 2347 2344 2337 2340 2349 2345 2338 2341 2338 2338 2339 2335 2339 2342 2343 2342 2348 2333 2329 2337 2345 2343 2326 2330 2330 2344 2350 2336 2326 2331 2333 2335 2344 2336 2347 2326 2326 2335 2344 2321 2369 2360 2297 2321
2432 2417 2431 2417 2395 2403 2380 2397 2380 2391 2392 2386 2392 2380 2380 2373 2381 2383 2379 2366 2362 2370 2380 2368 2367 2361 2365 2368 2353 2364 2366 2371 2363 2365 2360 2355 2364 2358 2356 2350 2364 2357 2348 2354 2344 2340 2349 2358 2343 2340 2335 2346 2347 2341 2341 2352 2345 2340 2347 2349 2343 2345 2351 2342 2346 2330 2340 2342 2346 2340 2337 2329 2339 2342 2339 2346 2343 2349 2338 2337 2340 2340 2347 2334 2328 2333 2352 2347 2335 2335 2337 2338 2328 2334 2343 2349 2340 2341 2333 2332 2327 2333 2326 2332 2334 2333 2325 2332 2332 2343 2356 2327 2320 2339 2338 2350 2342 2333 2312 2360
2400 2463 2406 2399 2387 2392 2386 2399 2399 2386 2405 2388 2388 2389 2386 2378 2378 2388 2385 2385 2393 2378 2376 2381 2373 2379 2365 2374 2359 2374 2378 2368 2361 2365 2366 2356 2354 2369 2365 2353 2351 2359 2344 2364 2356 2353 2351 2347 2343 2347 2345 2339 2338 2351 2354 2345 2354 2343 2343 2351 2349 2337 2346 2340 2337 2352 2356 2345 2346 2345 2346 2340 2350 2344 2344 2344 2349 2349 2349 2349 2332 2352 2342 2340 2344 2346 2341 2341 2335 2345 2334 2331 2346 2336 2348 2338 2333 2339 2347 2352 2340 2335 2336 2337 2337 2348 2341 2335 2352 2351 2337 2333 2332 2332 2334 2295 2333 2337 2320 2360
2414 2405 2406 2389 2394 2391 2400 2387 2387 2382 2398 2394 2397 2380 2387 2374 2371 2395 2387 2367 2385 2379 2388 2383 2375 2369 2380 2364 2363 2373 2371 2363 2356 2359 2366 2367 2361 2367 2368 2359 2350 2353 2357 2363 2349 2349 2353 2346 2360 2357 2347 2357 2335 2348 2326 2344 2339 2337 2339 2339 2334 2351 2340 2340 2334 2349 2343 2346 2344 2351 2347 2343 2354 2344 2344 2334 2337 2348 2336 2339 2349 2350 2349 2349 2342 2339 2336 2336 2344 2337 2334 2330 2341 2344 2346 2337 2330 2349 2328 2347 2344 2330 2334 2338 2337 2334 2329 2340 2321 2358 2328 2326 2339 2340 2343 2330 2345 2352 2353 2363
2445 2405 2423 2408 2413 2413 2411 2390 2389 2405 2382 2383 2389 2379 2386 2397 2390 2384 2378 2383 2377 2373 2381 2378 2372 2379 2371 2372 2375 2365 2356 2365 2364 2363 2364 2363 2361 2366 2362 2351 2353 2355 2355 2354 2351 2359 2353 2364 2358 2352 2355 2363 2343 2351 2352 2337 2354 2345 2348 2344 2342 2339 2342 2338 2343 2351 2355 2340 2347 2346 2350 2342 2343 2342 2341 2352 2351 2340 2349 2354 2342 2347 2336 2338 2336 2333 2336 2346 2334 2331 2346 2346 2340 2345 2344 2340 2333 2342 2342 2344 2346 2336 2333 2339 2339 2340 2333 2334 2347 2340 2315 2336 2336 2352 2344 2327 2334 2386 2388 2342
2447 2428 2397 2412 2422 2401 2391 2390 2401 2407 2391 2394 2377 2387 2376 2377 2373 2372 2384 2385 2382 2379 2380 2380 2375 2378 2369 2371 2377 2369 2370 2358 2362 2361 2360 2361 2352 2353 2363 2351 2346 2347 2359 2346 2349 2355 2351 2344 2368 2359 2347 2359 2342 2335 2349 2351 2335 2334 2347 2344 2334 2336 2340 2342 2346 2338 2337 2345 2345 2342 2338 2338 2334 2353 2336 2345 2346 2343 2339 2340 2332 2342 2349 2344 2345 2343 2346 2343 2343 2340 2344 2349 2330 2334 2340 2335 2329 2348 2338 2333 2354 2343 2341 2341 2338 2339 2338 2350 2337 2337 2322 2324 2339 2324 2326 2334 2338 2330 2319 2316
2399 2416 2448 2412 2402 2396 2383 2401 2408 2391 2381 2391 2389 2385 2378 2372 2383 2389 2377 2382 2365 2371 2378 2371 2371 2374 2364 2366 2370 2373 2376 2374 2361 2362 2356 2349 2361 2358 2359 2350 2349 2361 2348 2350 2356 2364 2357 2347 2348 2352 2351 2355 2350 2344 2342 2351 2347 2340 2344 2347 2340 2346 2347 2351 2341 2337 2336 2341 2337 2337 2344 2339 2343 2345 2348 2347 2343 2339 2339 2346 2338 2341 2351 2343 2340 2343 2336 2341 2344 2330 2332 2329 2337 2341 2340 2326 2340 2338 2347 2329 2333 2338 2344 2335 2341 2345 2331 2344 2337 2332 2356 2327 2333 2326 2320 2332 2364 2336 2413 2378
2421 2418 2431 2425 2400 2392 2384 2405 2388 2395 2391 2380 2375 2381 2388 2388 2403 2384 2375 2389 2372 2370 2370 2381 2379 2382 2371 2369 2369 2374 2371 2366 2374 2354 2360 2354 2358 2355 2350 2363 2364 2357 2355 2358 2364 2347 2353 2348 2366 2357 2355 2342 2354 2352 2350 2344 2345 2345 2346 2349 2342 2354 2338 2350 2344 2341 2343 2349 2343 2343 2345 2326 2342 2339 2330 2338 2338 2343 2351 2356 2336 2347 2350 2335 2342 2352 2334 2337 2337 2333 2343 2340 2345 2344 2344 2343 2340 2332 2331 2328 2332 2340 2337 2331 2333 2344 2331 2348 2348 2345 2339 2347 2334 2326 2327 2339 2341 2342 2361 2360
2441 2421 2435 2413 2396 2395 2404 2381 2394 2397 2396 2384 2372 2379 2386 2384 2378 2380 2385 2377 2383 2381 2384 2367 2371 2373 2381 2358 2362 2369 2366 2370 2365 2365 2358 2354 2355 2352 2353 2357 2362 2350 2346 2355 2352 2349 2353 2351 2353 2348 2346 2347 2359 2344 2343 2348 2343 2347 2345 2342 2352 2342 2338 2344 2339 2347 2342 2333 2342 2340 2349 2336 2344 2343 2328 2338 2336 2340 2343 2346 2347 2338 2341 2349 2343 2334 2336 2328 2362 2332 2340 2333 2337 2324 2340 2337 2345 2347 2350 2338 2328 2332 2315 2334 2341 2334 2343 2351 2343 2334 2346 2323 2332 2335 2313 2328 2356 2332 2354 2340
2432 2411 2449 2432 2412 2397 2406 2407 2392 2393 2400 2397 2378 2395 2383 2388 2383 2380 2395 2391 2394 2379 2379 2377 2386 2379 2371 2369 2373 2360 2375 2355 2361 2359 2360 2371 2355 2352 2361 2358 2351 2349 2342 2358 2350 2362 2359 2355 2348 2345 2349 2351 2351 2343 2348 2351 2345 2346 2350 2351 2343 2341 2348 2341 2347 2343 2344 2335 2337 2353 2338 2333 2339 2347 2332 2340 2350 2347 2343 2357 2343 2345 2333 2341 2353 2345 2336 2342 2346 2335 2341 2341 2337 2347 2335 2327 2330 2336 2339 2336 2343 2335 2334 2337 2356 2349 2324 2352 2357 2351 2330 2354 2324 2343 2343 2339 2362 2368 2349 2395
2433 2418 2445 2442 2406 2399 2393 2405 2398 2401 2380 2381 2374 2383 2390 2387 2379 2376 2381 2386 2386 2381 2393 2381 2382 2375 2378 2374 2370 2371 2360 2362 2369 2365 2365 2362 2357 2363 2356 2351 2356 2360 2349 2353 2361 2347 2355 2355 2343 2348 2352 2353 2357 2349 2343 2347 2337 2352 2350 2346 2342 2346 2338 2335 2340 2343 2341 2346 2347 2344 2329 2339 2346 2343 2352 2348 2341 2342 2336 2346 2344 2334 2341 2335 2338 2351 2337 2337 2340 2339 2339 2329 2335 2335 2340 2330 2337 2337 2344 2348 2342 2351 2332 2340 2336 2346 2331 2347 2346 2342 2340 2339 2338 2326 2350 2333 2388 2334 2364 2387
2455 2446 2420 2389 2415 2415 2401 2399 2399 2381 2389 2387 2391 2384 2384 2385 2387 2381 2375 2376 2387 2378 2396 2379 2386 2374 2373 2372 2378 2369 2368 2359 2363 2362 2359 2355 2361 2359 2359 2355 2359 2358 2352 2356 2356 2357 2357 2349 2352 2353 2352 2358 2351 2355 2340 2351 2350 2354 2346 2345 2349 2343 2349 2350 2352 2340 2340 2350 2348 2335 2338 2341 2335 2338 2342 2337 2342 2342 2347 2345 2335 2347 2343 2342 2337 2339 2345 2337 2338 2335 2339 2350 2340 2341 2340 2344 2336 2345 2347 2351 2334 2354 2350 2343 2331 2336 2329 2339 2349 2338 2331 2352 2320 2346 2327 2338 2328 2403 2353 2390
2437 2445 2427 2416 2409 2422 2423 2410 2391 2402 2404 2396 2397 2391 2398 2384 2397 2400 2391 2381 2385 2387 2382 2379 2390 2379 2378 2382 2376 2373 2374 2371 2368 2376 2360 2361 2364 2365 2362 2355 2357 2358 2353 2352 2360 2352 2353 2359 2362 2355 2362 2354 2349 2340 2353 2342 2352 2354 2361 2349 2348 2349 2344 2342 2349 2340 2349 2344 2343 2340 2340 2351 2351 2354 2346 2357 2352 2346 2347 2359 2360 2344 2348 2349 2349 2350 2352 2345 2351 2352 2353 2337 2345 2346 2349 2361 2340 2342 2345 2343 2364 2342 2347 2347 2340 2347 2361 2330 2360 2346 2347 2348 2341 2338 2336 2366 2361 2369 2339 2384
2477 2438 2418 2408 2404 2384 2403 2404 2397 2394 2400 2406 2393 2386 2394 2394 2376 2387 2381 2386 2387 2384 2381 2372 2374 2371 2373 2373 2371 2361 2363 2351 2361 2363 2355 2370 2356 2358 2350 2360 2354 2355 2359 2349 2354 2359 2346 2350 2354 2353 2352 2361 2348 2345 2346 2352 2346 2352 2351 2347 2341 2352 2344 2342 2351 2346 2352 2341 2340 2344 2345 2348 2346 2348 2340 2329 2345 2353 2336 2352 2349 2341 2350 2350 2336 2339 2345 2342 2345 2341 2343 2339 2339 2330 2341 2332 2346 2341 2350 2338 2350 2341 2326 2336 2337 2339 2328 2336 2357 2334 2343 2348 2338 2344 2327 2332 2317 2329 2324 2340
2465 2417 2436 2420 2407 2397 2402 2409 2398 2399 2385 2405 2380 2386 2390 2387 2388 2374 2382 2379 2385 2376 2377 2380 2374 2367 2368 2378 2362 2376 2373 2379 2368 2359 2355 2357 2365 2358 2353 2356 2358 2360 2352 2364 2352 2363 2350 2354 2361 2349 2361 2365 2349 2349 2349 2357 2351 2342 2349 2342 2337 2347 2350 2354 2353 2344 2341 2352 2342 2346 2344 2341 2347 2342 2350 2346 2343 2346 2353 2348 2348 2339 2337 2335 2343 2344 2340 2346 2345 2347 2337 2330 2339 2340 2350 2343 2348 2340 2340 2339 2355 2336 2343 2339 2340 2346 2329 2345 2337 2344 2342 2351 2339 2352 2325 2336 2369 2358 2367 2335
2434 2477 2431 2410 2412 2421 2412 2406 2399 2405 2406 2380 2390 2393 2386 2378 2380 2392 2396 2385 2390 2377 2375 2379 2370 2373 2381 2383 2380 2366 2369 2360 2370 2356 2364 2359 2356 2360 2351 2350 2353 2355 2357 2350 2359 2360 2343 2353 2355 2353 2352 2350 2360 2353 2343 2354 2359 2342 2347 2344 2347 2349 2347 2343 2350 2338 2332 2347 2350 2341 2344 2341 2342 2348 2344 2350 2343 2337 2344 2353 2345 2331 2353 2348 2345 2333 2352 2345 2349 2339 2348 2336 2331 2340 2349 2343 2342 2343 2340 2349 2356 2343 2322 2345 2344 2330 2340 2340 2351 2349 2345 2344 2329 2335 2336 2351 2347 2305 2366 2344
2444 2427 2418 2405 2417 2433 2413 2416 2389 2400 2397 2393 2392 2396 2388 2392 2391 2378 2387 2388 2384 2378 2388 2375 2377 2373 2374 2382 2376 2365 2378 2365 2374 2372 2367 2360 2370 2365 2363 2357 2360 2362 2348 2361 2357 2360 2353 2351 2350 2353 2355 2358 2358 2361 2349 2344 2354 2356 2351 2351 2352 2353 2346 2357 2346 2345 2351 2337 2353 2347 2345 2347 2345 2351 2346 2351 2357 2349 2339 2355 2354 2352 2346 2346 2347 2345 2348 2339 2337 2346 2345 2344 2348 2339 2347 2338 2344 2339 2355 2340 2339 2338 2341 2342 2335 2335 2343 2342 2347 2332 2346 2350 2340 2347 2331 2355 2342 2355 2350 2342
2433 2417 2416 2420 2408 2406 2394 2400 2397 2403 2401 2391 2397 2399 2382 2382 2383 2396 2392 2389 2388 2376 2393 2378 2393 2379 2377 2378 2368 2370 2377 2379 2367 2365 2375 2365 2375 2358 2361 2364 2362 2363 2362 2358 2360 2366 2364 2355 2354 2366 2349 2359 2355 2354 2353 2348 2354 2352 2346 2355 2348 2352 2344 2356 2350 2342 2351 2355 2348 2344 2354 2344 2348 2343 2352 2354 2351 2347 2338 2358 2346 2347 2346 2349 2348 2348 2343 2347 2348 2346 2343 2342 2347 2332 2342 2343 2355 2353 2353 2334 2332 2354 2331 2347 2337 2339 2341 2357 2343 2362 2336 2359 2339 2352 2369 2363 2336 2392 2371 2378
2442 2410 2426 2411 2412 2393 2408 2408 2389 2408 2399 2398 2386 2397 2386 2383 2400 2393 2383 2377 2384 2378 2383 2378 2378 2383 2370 2370 2378 2360 2365 2362 2369 2358 2364 2373 2357 2355 2366 2355 2358 2360 2361 2350 2348 2359 2353 2350 2358 2357 2356 2359 2354 2346 2355 2352 2357 2348 2345 2349 2349 2344 2351 2352 2350 2344 2339 2344 2349 2346 2353 2346 2342 2342 2341 2353 2353 2350 2349 2349 2346 2343 2343 2343 2351 2347 2337 2340 2347 2348 2334 2347 2338 2329 2338 2345 2339 2351 2341 2346 2347 2348 2329 2341 2339 2336 2350 2329 2345 2351 2333 2326 2334 2358 2352 2328 2332 2334 2352 2351
2449 2441 2423 2400 2409 2416 2394 2407 2427 2409 2391 2387 2393 2386 2373 2381 2387 2386 2384 2378 2375 2391 2388 2376 2375 2377 2376 2380 2368 2370 2363 2368 2374 2364 2364 2362 2358 2358 2358 2357 2351 2359 2363 2366 2357 2354 2351 2352 2351 2342 2353 2361 2353 2347 2343 2352 2355 2356 2346 2345 2343 2354 2351 2354 2355 2344 2352 2349 2338 2346 2347 2354 2347 2357 2352 2348 2350 2346 2338 2349 2337 2336 2346 2352 2346 2337 2346 2342 2340 2341 2346 2341 2336 2346 2350 2346 2334 2347 2351 2348 2341 2341 2338 2333 2344 2340 2336 2340 2366 2355 2335 2334 2362 2344 2350 2344 2351 2375 2348 2339
2449 2429 2403 2429 2412 2408 2420 2398 2387 2388 2389 2394 2383 2385 2384 2392 2383 2381 2386 2385 2382 2379 2393 2372 2368 2374 2378 2363 2376 2367 2365 2368 2361 2364 2364 2364 2359 2364 2361 2355 2354 2355 2359 2357 2353 2357 2353 2353 2356 2350 2350 2360 2355 2347 2360 2342 2355 2348 2342 2349 2350 2349 2347 2350 2352 2342 2345 2345 2347 2347 2347 2351 2343 2340 2353 2346 2343 2342 2340 2348 2348 2345 2348 2351 2343 2346 2343 2348 2344 2336 2342 2343 2338 2344 2349 2339 2343 2337 2334 2333 2343 2349 2340 2346 2346 2345 2331 2339 2370 2340 2329 2340 2351 2317 2335 2330 2354 2361 2322 2323
2425 2427 2420 2424 2401 2419 2414 2392 2391 2409 2398 2400 2395 2393 2385 2394 2398 2397 2378 2380 2375 2395 2388 2383 2372 2379 2373 2380 2374 2372 2369 2371 2365 2367 2363 2362 2359 2371 2372 2359 2370 2358 2359 2354 2363 2361 2352 2353 2354 2354 2350 2366 2351 2356 2346 2353 2351 2348 2346 2351 2353 2351 2357 2352 2343 2343 2358 2350 2349 2358 2351 2351 2347 2341 2353 2354 2356 2359 2348 2346 2348 2350 2347 2349 2348 2349 2342 2340 2350 2345 2348 2355 2353 2350 2335 2344 2349 2343 2349 2348 2350 2343 2334 2348 2349 2340 2346 2339 2360 2342 2343 2335 2352 2352 2330 2342 2345 2340 2356 2340
2445 2420 2429 2396 2413 2417 2398 2396 2407 2402 2393 2383 2399 2393 2390 2403 2375 2380 2378 2390 2397 2388 2396 2372 2377 2384 2375 2380 2371 2373 2373 2375 2364 2366 2371 2359 2366 2369 2361 2357 2365 2360 2358 2357 2354 2355 2361 2361 2355 2354 2357 2357 2351 2349 2349 2352 2350 2348 2348 2345 2352 2351 2354 2348 2350 2352 2354 2358 2351 2349 2347 2355 2345 2349 2349 2354 2348 2349 2350 2354 2350 2347 2352 2352 2350 2338 2337 2358 2342 2341 2337 2351 2337 2346 2345 2352 2355 2345 2338 2351 2338 2340 2345 2330 2329 2344 2336 2335 2337 2339 2331 2336 2352 2341 2358 2345 2351 2331 2339 2378
2452 2421 2438 2440 2409 2403 2409 2397 2398 2402 2398 2391 2389 2382 2389 2381 2375 2384 2378 2390 2381 2382 2396 2383 2370 2382 2380 2370 2375 2371 2372 2377 2368 2366 2367 2367 2366 2356 2361 2352 2364 2358 2367 2357 2353 2355 2355 2359 2354 2356 2359 2356 2344 2353 2345 2358 2351 2349 2346 2345 2345 2362 2356 2349 2343 2352 2347 2350 2346 2350 2349 2345 2349 2353 2347 2344 2347 2348 2356 2349 2350 2344 2352 2342 2336 2341 2339 2345 2334 2336 2340 2336 2354 2340 2348 2354 2351 2339 2340 2349 2351 2342 2342 2343 2345 2342 2336 2352 2361 2339 2336 2317 2336 2335 2336 2331 2342 2336 2372 2307
2424 2414 2403 2431 2407 2423 2421 2411 2402 2403 2411 2403 2387 2392 2409 2403 2401 2385 2388 2385 2385 2386 2380 2379 2379 2380 2382 2377 2361 2375 2356 2370 2371 2371 2359 2356 2366 2367 2366 2367 2356 2363 2356 2353 2363 2356 2358 2358 2352 2345 2364 2355 2356 2345 2349 2348 2346 2355 2352 2348 2355 2350 2348 2352 2356 2351 2351 2345 2350 2349 2346 2360 2352 2351 2352 2348 2350 2348 2353 2344 2343 2345 2345 2346 2344 2349 2349 2345 2349 2346 2356 2352 2338 2351 2349 2341 2350 2338 2346 2350 2345 2339 2339 2350 2352 2343 2345 2346 2343 2344 2346 2363 2344 2346 2348 2343 2366 2347 2318 2344
2471 2455 2428 2473 2450 2431 2418 2412 2401 2398 2420 2413 2411 2397 2406 2410 2397 2393 2399 2388 2384 2393 2386 2371 2387 2385 2389 2370 2372 2367 2382 2366 2374 2364 2373 2371 2361 2369 2365 2367 2357 2357 2368 2362 2363 2365 2358 2355 2353 2350 2353 2353 2357 2362 2360 2357 2360 2358 2354 2359 2351 2357 2356 2355 2361 2356 2350 2351 2348 2351 2349 2353 2351 2412 2352 2355 2353 2351 2356 2346 2344 2348 2345 2348 2350 2356 2349 2348 2355 2343 2350 2355 2352 2351 2353 2335 2347 2336 2355 2345 2349 2341 2345 2349 2337 2348 2350 2332 2340 2365 2366 2329 2352 2343 2348 2331 2349 2368 2364 2391
2615 2570 2535 2563 2503 2500 2459 2421 2444 2469 2469 2440 2435 2442 2459 2426 2409 2431 2428 2408 2381 2394 2386 2376 2378 2387 2380 2367 2371 2366 2365 2361 2365 2370 2366 2356 2363 2359 2365 2367 2353 2366 2360 2362 2356 2352 2353 2354 2358 2354 2357 2361 2358 2355 2359 2355 2355 2366 2355 2351 2356 2355 2359 2356 2355 2350 2352 2348 2355 2346 2352 2356 2351 2345 2353 2352 2340 2341 2343 2346 2350 2358 2347 2349 2342 2335 2349 2354 2338 2350 2346 2338 2337 2347 2355 2350 2366 2348 2362 2356 2349 2342 2349 2352 2334 2334 2340 2342 2352 2370 2359 2329 2328 2350 2354 2351 2346 2412 2365 2431
0 2728 2548 2539 2648 2566 2471 2417 2494 2506 2476 2501 2455 2457 2508 2479 2456 2441 2492 2545 2385 2395 2382 2317 2377 2374 2371 2365 2364 2362 2371 2373 2369 2366 2364 2360 2369 2360 2357 2359 2359 2356 2356 2348 2351 2352 2345 2348 2353 2347 2359 2356 2346 2349 2339 2350 2350 2345 2355 2354 2350 2343 2360 2349 2342 2351 2351 2340 2344 2347 2352 2346 2344 2340 2345 2350 2345 2357 2347 2351 2349 2359 2362 2357 2350 2351 2366 2348 2353 2370 2347 2333 2356 2362 2347 2357 2367 2355 2343 2351 2359 2379 2359 2341 2346 2351 2350 2361 2346 2348 2344 2344 2385 2320 2341 2366 2353 2457 2369 2365
2883 3049 2605 2585 2523 2566 2534 2511 2503 2516 2457 2510 2444 2422 2443 2442 2417 2423 2437 2401 2423 2402 2382 2376 2387 2368 2375 2366 2361 2369 2372 2367 2369 2364 2371 2360 2356 2359 2360 2360 2352 2365 2354 2360 2354 2364 2358 2349 2351 2353 2355 2361 2352 2348 2350 2352 2353 2348 2349 2348 2347 2334 2347 2338 2346 2348 2356 2348 2345 2343 2352 2347 2349 2344 2342 2347 2339 2341 2355 2358 2358 2340 2346 2343 2348 2351 2353 2371 2356 2344 2351 2364 2360 2367 2358 2361 2361 2359 2358 2352 2345 2368 2348 2354 2368 2363 2362 2351 2348 2347 2366 2377 2404 2398 2397 2356 2363 2336 0 0
3014 3029 2801 2750 2875 2859 2646 2630 2616 2669 2599 2576 2566 2618 2545 2554 2555 2515 2571 2524 2518 2476 2389 2380 2371 2391 2378 2379 2371 2366 2369 2371 2365 2360 2364 2378 2365 2352 2360 2367 2359 2353 2356 2362 2363 2356 2349 2349 2352 2355 2359 2352 2359 2365 2348 2361 2347 2351 2361 2340 2354 2355 2350 2351 2346 2353 2353 2344 2355 2353 2352 2351 2348 2346 2346 2350 2346 2345 2356 2353 2348 2383 2393 2375 2382 2370 2369 2390 2395 2375 2373 2385 2391 2391 2386 2379 2398 2389 2378 2383 2383 2368 2389 2405 2385 2369 2354 2382 2385 2386 2373 2375 2405 2366 2394 2372 2435 2452 0 0
2673 2591 2577 2532 2618 2570 2514 2501 2531 2512 2519 2504 2510 2517 2493 2507 2495 2488 2491 2483 2494 2467 2393 2390 2372 2389 2365 2371 2370 2365 2376 2366 2372 2365 2359 2371 2366 2349 2366 2358 2358 2365 2359 2354 2366 2358 2358 2357 2360 2360 2358 2358 2361 2354 2350 2357 2352 2348 2352 2356 2350 2350 2348 2342 2357 2348 2353 2347 2345 2351 2354 2342 2344 2355 2348 2350 2350 2344 2357 2349 2393 2438 2423 2430 2428 2443 2441 2451 2404 2437 2435 2431 2469 2418 2445 2449 2420 2453 2452 2427 2476 2426 2427 2424 2438 2427 2409 2434 2455 2439 2429 2444 2507 2465 2582 2473 2507 0 0 0
2739 2716 2618 2562 2595 2618 2537 2530 2528 2555 2549 2516 2517 2519 2488 2497 2506 2497 2506 2509 2485 2488 2401 2389 2380 2382 2376 2377 2380 2374 2368 2375 2372 2371 2366 2368 2370 2377 2365 2367 2364 2360 2363 2355 2359 2365 2364 2364 2355 2362 2354 2362 2352 2362 2364 2356 2359 2351 2356 2351 2355 2355 2348 2352 2351 2349 2352 2352 2350 2351 2352 2344 2351 2353 2351 2345 2354 2351 2357 2364 2420 2440 2442 2436 2450 2444 2449 2454 2441 2437 2444 2438 2434 2451 2445 2440 2430 2439 2450 2446 2459 2458 2434 2443 2430 2420 2454 2440 2433 2443 2442 2481 2440 2435 2480 2522 2502 2499 2554 2486
2941 2676 2595 2547 2579 2507 2541 2498 2530 2539 2503 2501 2512 2521 2476 2474 2490 2503 2485 2493 2464 2477 2396 2389 2384 2365 2385 2368 2379 2375 2373 2367 2359 2366 2366 2355 2362 2356 2363 2366 2366 2359 2356 2367 2356 2355 2354 2356 2352 2354 2365 2361 2354 2348 2347 2350 2345 2344 2357 2346 2354 2344 2358 2348 2348 2347 2348 2346 2348 2348 2355 2352 2352 2351 2344 2351 2355 2350 2351 2353 2402 2441 2448 2444 2444 2423 2446 2433 2442 2428 2437 2452 2450 2427 2431 2451 2449 2444 2437 2455 2446 2454 2455 2443 2447 2445 2449 2449 2440 2465 2445 2436 2459 2448 2449 2477 2460 2486 2532 2573
2739 2578 2572 2579 2577 2533 2536 2516 2513 2538 2513 2514 2511 2501 2481 2492 2495 2486 2492 2499 2488 2470 2410 2394 2387 2383 2376 2377 2376 2367 2371 2366 2361 2364 2364 2360 2358 2363 2363 2362 2364 2360 2365 2371 2361 2371 2358 2359 2362 2360 2366 2361 2360 2354 2359 2356 2360 2350 2335 2354 2350 2352 2350 2347 2351 2355 2352 2356 2342 2351 2351 2349 2357 2347 2348 2346 2352 2349 2356 2361 2395 2417 2442 2433 2447 2418 2428 2452 2442 2439 2421 2440 2445 2447 2438 2441 2433 2414 2448 2431 2455 2453 2456 2425 2430 2443 2456 2434 2439 2443 2470 2456 2458 2420 2460 2498 2518 2499 2485 2701
2939 2900 2699 2676 2675 2693 2620 2577 2620 2526 2576 2569 2502 2534 2523 2533 2507 2533 2506 2500 2506 2526 2393 2404 2393 2377 2374 2381 2378 2383 2374 2372 2361 2373 2361 2366 2369 2374 2361 2362 2372 2366 2363 2368 2359 2356 2360 2361 2356 2362 2368 2357 2349 2358 2359 2355 2349 2348 2355 2348 2357 2354 2357 2356 2353 2352 2353 2346 2338 2355 2343 2351 2355 2348 2356 2350 2347 2353 2353 2361 2423 2449 2439 2449 2446 2441 2438 2445 2441 2436 2433 2442 2441 2442 2436 2444 2446 2451 2439 2441 2449 2451 2426 2441 2438 2449 2434 2441 2435 2443 2419 2445 2434 2452 2447 2441 2447 2434 2522 2498
0 0 3102 2895 2902 3005 2845 2666 2632 2758 2643 2592 2617 2600 2545 2548 2565 2611 2509 2554 2569 2509 2388 2377 2388 2377 2386 2384 2382 2370 2374 2373 2366 2367 2363 2373 2368 2363 2360 2362 2358 2356 2365 2355 2361 2368 2363 2351 2358 2353 2353 2359 2354 2352 2359 2358 2353 2360 2358 2358 2359 2350 2350 2347 2349 2348 2352 2354 2351 2351 2348 2352 2349 2350 2349 2352 2360 2351 2348 2363 2421 2452 2477 2465 2471 2455 2455 2483 2456 2461 2452 2478 2447 2464 2453 2466 2463 2453 2454 2486 2465 2474 2461 2454 2472 2445 2459 2475 2498 2466 2476 2498 2492 2466 2498 2481 2479 2575 2702 2646
3071 3032 2802 2615 2793 2666 2673 2631 2663 2592 2626 2598 2584 2569 2539 2554 2593 2593 2554 2522 2524 2505 2393 2389 2380 2380 2384 2385 2374 2366 2377 2371 2370 2366 2373 2373 2357 2369 2361 2366 2356 2359 2360 2365 2362 2354 2361 2356 2360 2358 2361 2363 2355 2365 2349 2352 2347 2353 2359 2361 2354 2347 2361 2351 2352 2345 2353 2354 2346 2347 2350 2352 2345 2350 2358 2353 2347 2355 2351 2348 2406 2435 2455 2451 2425 2430 2438 2456 2447 2462 2462 2456 2465 2478 2443 2467 2460 2428 2456 2477 2472 2485 2476 2471 2440 2449 2438 2460 2505 2454 2445 2495 2469 2574 2606 2654 2550 0 0 0
2728 2649 2566 2547 2600 2536 2532 2526 2510 2527 2515 2509 2512 2500 2504 2503 2514 2493 2487 2492 2498 2466 2398 2383 2388 2389 2384 2383 2378 2373 2373 2378 2373 2372 2372 2362 2371 2352 2365 2361 2364 2364 2359 2360 2359 2362 2367 2360 2358 2364 2363 2367 2356 2354 2349 2351 2352 2353 2355 2359 2355 2352 2348 2357 2339 2363 2350 2351 2353 2347 2341 2351 2352 2348 2356 2354 2350 2352 2350 2361 2429 2440 2450 2450 2469 2456 2453 2447 2452 2459 2454 2445 2444 2448 2444 2447 2447 2440 2439 2454 2471 2462 2476 2457 2452 2441 2471 2465 2447 2472 2482 2520 2490 2451 2489 2414 2520 0 0 0
2670 2625 2622 2524 2610 2583 2550 2542 2527 2533 2516 2542 2536 2545 2514 2510 2529 2511 2509 2509 2507 2490 2398 2384 2386 2382 2374 2390 2371 2376 2371 2370 2377 2376 2381 2367 2356 2367 2359 2359 2369 2357 2367 2371 2359 2359 2366 2357 2363 2361 2367 2351 2358 2353 2353 2360 2359 2354 2357 2353 2352 2356 2355 2358 2353 2358 2357 2351 2351 2353 2340 2349 2355 2356 2349 2347 2348 2346 2356 2358 2435 2438 2444 2448 2446 2446 2439 2458 2441 2443 2449 2440 2449 2454 2451 2437 2447 2455 2436 2449 2445 2457 2453 2447 2439 2437 2433 2439 2453 2467 2439 2446 2441 2457 2535 2470 2485 2536 2512 2630
2704 2572 2602 2552 2585 2543 2525 2528 2525 2529 2497 2539 2522 2517 2495 2507 2495 2511 2493 2493 2495 2470 2391 2382 2379 2381 2384 2374 2382 2382 2371 2375 2379 2371 2371 2371 2371 2369 2357 2355 2370 2361 2358 2359 2361 2367 2358 2366 2367 2358 2364 2362 2355 2355 2354 2360 2351 2356 2360 2358 2353 2357 2342 2348 2351 2348 2354 2351 2350 2357 2347 2349 2349 2353 2352 2352 2346 2350 2344 2365 2415 2432 2429 2437 2452 2439 2435 2438 2445 2429 2434 2451 2441 2448 2426 2431 2431 2442 2432 2449 2443 2432 2433 2440 2441 2435 2440 2450 2436 2463 2457 2460 2433 2467 2454 2464 2451 2490 2635 2536
2743 2630 2607 2576 2582 2534 2544 2534 2529 2495 2511 2523 2526 2508 2498 2513 2511 2507 2486 2492 2497 2457 2394 2389 2390 2371 2373 2385 2387 2370 2370 2368 2375 2371 2367 2363 2356 2372 2367 2360 2363 2372 2363 2363 2361 2366 2352 2360 2355 2365 2356 2351 2357 2360 2360 2359 2356 2350 2356 2344 2346 2347 2351 2348 2363 2348 2351 2352 2345 2351 2347 2341 2347 2342 2348 2346 2348 2355 2359 2359 2399 2436 2445 2426 2445 2439 2421 2422 2428 2423 2439 2451 2441 2436 2439 2441 2443 2422 2399 2430 2439 2430 2444 2448 2409 2432 2442 2450 2424 2461 2443 2426 2433 2476 2446 2446 2494 2505 2646 2716
3123 3045 2851 2777 2846 2736 2583 2578 2645 2635 2636 2628 2580 2575 2559 2530 2535 2519 2544 2527 2494 2483 2399 2387 2391 2378 2381 2381 2378 2377 2371 2373 2370 2371 2368 2364 2372 2360 2370 2367 2369 2364 2362 2358 2368 2361 2359 2360 2360 2370 2359 2354 2355 2359 2360 2354 2357 2355 2349 2349 2351 2350 2358 2351 2354 2355 2349 2352 2348 2355 2351 2342 2353 2361 2356 2355 2356 2351 2349 2361 2432 2436 2450 2448 2447 2446 2447 2446 2464 2440 2446 2447 2450 2439 2444 2447 2455 2441 2445 2445 2447 2450 2446 2430 2447 2428 2444 2466 2433 2449 2438 2440 2450 2436 2440 2461 2461 2427 2516 2537
0 0 3084 2951 2805 2791 2762 2686 2704 2701 2603 2556 2580 2560 2569 2604 2559 2609 2508 2522 2501 2441 2374 2372 2382 2379 2374 2373 2376 2369 2372 2369 2369 2373 2373 2368 2373 2363 2362 2368 2362 2364 2363 2360 2362 2357 2359 2359 2360 2362 2354 2356 2356 2351 2355 2362 2352 2353 2349 2345 2350 2353 2352 2352 2362 2354 2354 2351 2344 2344 2344 2346 2348 2344 2354 2357 2357 2349 2360 2348 2424 2402 2415 2451 2446 2429 2446 2421 2460 2443 2475 2442 2422 2449 2464 2460 2464 2456 2451 2456 2457 2482 2459 2485 2451 2440 2444 2443 2453 2473 2496 2467 2459 2475 2531 2524 2532 2496 0 0
2802 2664 2633 2614 2645 2605 2578 2532 2586 2578 2538 2579 2590 2590 2540 2533 2569 2552 2539 2540 2514 2460 2398 2387 2395 2377 2391 2378 2379 2382 2372 2384 2368 2370 2373 2372 2367 2363 2373 2369 2362 2366 2374 2364 2364 2366 2366 2362 2360 2368 2367 2361 2367 2360 2362 2367 2354 2350 2358 2349 2352 2356 2346 2352 2359 2351 2357 2342 2348 2356 2347 2351 2355 2355 2355 2352 2356 2355 2346 2352 2420 2404 2439 2459 2436 2456 2454 2429 2442 2431 2465 2472 2469 2451 2452 2467 2472 2493 2451 2467 2486 2496 2498 2461 2453 2472 2460 2501 2495 2527 2543 2500 2563 2485 2560 2529 0 0 0 0
2700 2609 2539 2554 2554 2524 2524 2529 2552 2518 2514 2512 2512 2520 2498 2514 2497 2531 2506 2488 2490 2475 2404 2389 2377 2382 2389 2388 2384 2368 2375 2371 2371 2368 2368 2374 2368 2362 2363 2363 2367 2356 2367 2368 2365 2365 2366 2356 2360 2358 2360 2360 2362 2355 2357 2349 2354 2358 2352 2356 2353 2355 2353 2349 2355 2354 2340 2345 2352 2356 2349 2358 2351 2352 2342 2350 2351 2358 2360 2361 2423 2443 2445 2463 2448 2435 2446 2464 2451 2437 2440 2467 2444 2453 2433 2456 2467 2450 2459 2455 2466 2474 2465 2427 2448 2465 2480 2453 2503 2464 2420 2483 2508 2506 2563 2484 2482 0 0 0
2877 2682 2575 2583 2575 2510 2553 2548 2517 2497 2492 2526 2507 2523 2508 2496 2500 2485 2523 2520 2481 2495 2390 2386 2385 2380 2384 2383 2374 2374 2383 2375 2379 2378 2370 2384 2367 2364 2360 2371 2375 2365 2366 2361 2375 2367 2358 2362 2359 2356 2365 2361 2354 2356 2359 2350 2354 2358 2356 2351 2360 2355 2342 2356 2348 2355 2352 2353 2350 2351 2353 2354 2353 2355 2353 2345 2350 2348 2349 2372 2437 2448 2444 2440 2439 2450 2443 2450 2452 2452 2456 2447 2436 2448 2440 2440 2436 2446 2435 2429 2436 2443 2431 2446 2451 2464 2450 2466 2442 2448 2437 2430 2457 2468 2439 2492 2481 2482 2521 2531
2759 2569 2538 2538 2575 2548 2568 2502 2577 2499 2519 2496 2517 2486 2504 2509 2498 2484 2484 2491 2495 2435 2400 2380 2382 2386 2380 2371 2370 2374 2380 2365 2373 2369 2377 2374 2361 2365 2364 2377 2361 2360 2367 2365 2366 2355 2362 2363 2360 2358 2371 2364 2360 2363 2362 2358 2355 2350 2356 2357 2352 2354 2355 2359 2351 2350 2351 2354 2358 2352 2338 2346 2353 2353 2352 2358 2358 2347 2349 2355 2433 2441 2431 2434 2438 2413 2435 2442 2433 2439 2437 2439 2421 2442 2433 2435 2431 2434 2447 2422 2430 2428 2433 2428 2436 2438 2435 2444 2471 2430 2442 2430 2462 2443 2404 2418 2466 2442 2469 2565
2851 2646 2570 2543 2589 2566 2551 2540 2559 2498 2528 2504 2515 2517 2515 2485 2500 2507 2489 2501 2501 2445 2402 2388 2392 2387 2393 2385 2384 2380 2374 2378 2368 2377 2376 2371 2374 2369 2369 2376 2364 2365 2367 2358 2370 2363 2365 2354 2368 2364 2364 2361 2365 2362 2361 2353 2360 2355 2351 2359 2356 2346 2344 2346 2357 2353 2353 2359 2350 2360 2350 2355 2352 2342 2353 2354 2342 2355 2353 2353 2405 2423 2435 2429 2419 2433 2434 2439 2436 2449 2408 2449 2440 2433 2412 2445 2426 2418 2445 2444 2449 2446 2428 2453 2423 2434 2431 2419 2429 2427 2435 2456 2483 2509 2419 2558 2494 2499 2443 2556
0 3043 2882 2871 2841 2690 2697 2674 2656 2607 2618 2586 2591 2589 2576 2528 2558 2522 2541 2522 2506 2488 2400 2389 2398 2381 2388 2388 2379 2377 2379 2381 2385 2376 2382 2368 2374 2384 2375 2370 2372 2370 2368 2376 2363 2364 2360 2358 2360 2367 2365 2355 2364 2359 2363 2357 2352 2356 2353 2354 2365 2358 2352 2362 2359 2360 2355 2361 2350 2353 2351 2359 2355 2350 2357 2350 2351 2358 2353 2370 2430 2443 2436 2454 2435 2439 2453 2441 2434 2444 2444 2460 2446 2444 2440 2441 2462 2454 2437 2442 2447 2446 2444 2447 2448 2428 2446 2454 2442 2400 2467 2444 2443 2469 2439 2444 2475 2511 2489 2439
0 0 0 3051 2980 3011 2799 2689 2727 2720 2705 2648 2618 2694 2636 2586 2564 2560 2538 2541 2534 2413 2408 2391 2376 2380 2383 2381 2385 2385 2374 2382 2373 2379 2370 2370 2375 2378 2369 2377 2366 2373 2359 2366 2356 2372 2365 2365 2367 2360 2360 2360 2363 2358 2350 2364 2356 2347 2354 2353 2348 2361 2362 2358 2354 2353 2354 2344 2353 2348 2352 2355 2349 2347 2355 2344 2364 2353 2347 2367 2404 2452 2451 2444 2436 2442 2414 2455 2455 2451 2453 2426 2449 2440 2433 2451 2464 2413 2458 2454 2441 2479 2431 2442 2461 2450 2445 2452 2461 2439 2480 2454 2470 2424 2474 2526 2386 2568 0 2654
2624 2648 2514 2543 2489 2561 2496 2470 2474 2484 2454 2461 2472 2456 2456 2454 2461 2467 2428 2452 2413 2408 2399 2391 2394 2383 2391 2375 2385 2379 2388 2390 2383 2373 2370 2385 2378 2374 2370 2369 2374 2376 2366 2367 2374 2367 2367 2363 2363 2359 2363 2358 2375 2362 2366 2359 2358 2354 2350 2357 2363 2359 2361 2355 2354 2359 2360 2364 2358 2362 2365 2360 2353 2349 2346 2359 2351 2365 2361 2358 2402 2447 2448 2468 2455 2498 2462 2469 2459 2481 2426 2468 2457 2483 2501 2431 2465 2456 2481 2506 2461 2498 2433 2473 2463 2491 2532 2496 2492 2581 2422 2488 2507 0 2701 0 0 0 0 0
3230 2981 2970 2820 2863 2778 2671 2504 2523 2503 2542 2576 2642 2588 2659 2582 2554 2541 2573 2505 2406 2404 2409 2396 2382 2391 2392 2385 2386 2375 2375 2391 2372 2380 2377 2386 2378 2387 2378 2375 2373 2379 2367 2376 2374 2370 2365 2354 2372 2357 2373 2370 2365 2361 2359 2368 2364 2364 2366 2357 2357 2356 2357 2358 2356 2359 2365 2352 2359 2364 2363 2358 2358 2361 2363 2356 2358 2362 2356 2369 2371 2354 2379 2379 2392 2367 2377 2392 2387 2362 2374 2379 2379 2365 2382 2374 2383 2391 2452 2390 2394 2425 2402 2420 2436 2357 2422 2404 2422 2425 2437 2427 2482 2503 2497 0 0 0 0 0
2503 2515 2478 2482 2528 2476 2465 2441 2440 2448 2442 2456 2462 2485 2464 2447 2459 2456 2428 2469 2406 2412 2404 2392 2397 2384 2388 2396 2393 2387 2388 2387 2387 2373 2378 2368 2379 2380 2370 2376 2364 2371 2372 2379 2375 2367 2374 2356 2363 2360 2374 2379 2371 2358 2366 2369 2359 2364 2361 2368 2362 2368 2359 2362 2353 2352 2368 2361 2368 2362 2357 2355 2359 2361 2365 2360 2348 2350 2360 2355 2355 2367 2381 2375 2388 2371 2394 2396 2393 2401 2382 2376 2357 2385 2341 2373 2385 2400 2415 2374 2375 2374 2394 2361 2399 2396 2373 2369 2351 2378 2422 2366 2457 2503 2389 2456 2343 2462 2593 0
2520 2471 2475 2452 2468 2467 2457 2442 2411 2433 2421 2429 2411 2450 2410 2433 2416 2412 2429 2414 2424 2402 2416 2414 2395 2404 2392 2399 2394 2390 2387 2396 2384 2386 2387 2397 2381 2387 2374 2382 2393 2374 2383 2382 2389 2373 2378 2368 2373 2369 2379 2364 2371 2377 2363 2363 2372 2375 2364 2368 2369 2364 2366 2371 2364 2358 2372 2360 2353 2362 2362 2361 2369 2358 2362 2365 2360 2362 2362 2375 2349 2376 2361 2379 2356 2388 2371 2359 2365 2369 2372 2367 2399 2355 2367 2364 2375 2369 2387 2346 2388 2408 2382 2391 2398 2360 2405 2361 2358 2390 2436 2415 2409 2430 2445 2396 2422 2437 2526 0
2517 2459 2433 2424 2443 2430 2425 2422 2428 2434 2419 2414 2419 2413 2409 2414 2407 2406 2410 2407 2394 2406 2410 2403 2391 2376 2390 2405 2383 2378 2382 2370 2390 2383 2387 2374 2383 2380 2374 2378 2387 2386 2363 2376 2367 2368 2374 2367 2379 2370 2362 2354 2360 2369 2363 2375 2365 2373 2369 2359 2355 2360 2365 2357 2364 2361 2358 2367 2366 2363 2357 2359 2352 2356 2355 2361 2365 2367 2358 2357 2358 2357 2369 2356 2368 2371 2360 2368 2367 2373 2365 2355 2370 2356 2375 2359 2371 2360 2358 2361 2374 2409 2371 2361 2380 2375 2379 2343 2373 2383 2335 2368 2388 2367 2396 2415 2467 2452 2505 2605
2494 2458 2413 2428 2430 2425 2424 2416 2406 2404 2410 2408 2400 2425 2403 2414 2404 2407 2390 2404 2396 2416 2398 2398 2397 2391 2388 2377 2380 2385 2385 2374 2373 2378 2370 2382 2386 2377 2379 2380 2380 2367 2382 2361 2366 2369 2366 2365 2364 2369 2368 2366 2361 2365 2356 2361 2366 2357 2368 2372 2359 2355 2368 2367 2361 2361 2348 2362 2363 2366 2359 2366 2355 2354 2356 2356 2361 2370 2363 2364 2361 2357 2362 2362 2364 2353 2348 2363 2358 2367 2357 2350 2362 2367 2359 2364 2354 2357 2358 2370 2364 2342 2351 2363 2347 2372 2362 2359 2379 2369 2356 2369 2359 2377 2417 2376 2353 2360 2454 2486
2506 2448 2447 2432 2416 2426 2437 2436 2432 2411 2412 2423 2397 2408 2402 2394 2414 2404 2397 2396 2399 2405 2406 2397 2388 2396 2386 2380 2380 2394 2386 2392 2384 2391 2384 2371 2378 2389 2378 2380 2377 2366 2368 2371 2378 2370 2371 2365 2368 2373 2372 2363 2358 2371 2372 2359 2370 2367 2371 2360 2362 2364 2359 2370 2362 2359 2363 2364 2373 2360 2357 2363 2362 2357 2366 2364 2360 2363 2371 2365 2366 2365 2361 2348 2355 2361 2350 2355 2368 2354 2348 2357 2353 2354 2363 2354 2366 2359 2362 2361 2356 2356 2356 2361 2351 2350 2355 2363 2383 2356 2349 2370 2353 2391 2373 2374 2360 2397 2366 2463
2465 2503 2447 2437 2445 2430 2433 2423 2429 2420 2428 2411 2411 2413 2410 2396 2406 2412 2400 2402 2410 2406 2404 2411 2403 2416 2397 2380 2408 2381 2387 2397 2385 2383 2389 2384 2386 2360 2376 2378 2387 2364 2380 2370 2369 2367 2372 2365 2363 2369 2386 2373 2372 2375 2370 2368 2369 2353 2363 2373 2365 2369 2358 2358 2347 2357 2353 2364 2354 2359 2358 2353 2366 2364 2367 2356 2354 2364 2370 2371 2365 2368 2365 2354 2362 2353 2364 2367 2358 2380 2348 2355 2360 2358 2362 2359 2353 2353 2368 2352 2351 2361 2370 2345 2341 2360 2374 2359 2367 2366 2357 2378 2390 2381 2354 2377 2345 2437 2475 2533
2491 2441 2460 2440 2456 2447 2437 2423 2403 2426 2400 2427 2428 2411 2406 2402 2416 2412 2402 2396 2400 2402 2429 2395 2407 2404 2377 2389 2396 2395 2385 2386 2376 2388 2384 2383 2380 2373 2371 2377 2385 2378 2372 2374 2374 2366 2375 2363 2365 2365 2365 2369 2364 2369 2372 2372 2353 2358 2363 2371 2348 2353 2363 2367 2355 2354 2349 2363 2368 2360 2360 2361 2359 2359 2364 2373 2357 2361 2361 2352 2353 2362 2355 2357 2353 2367 2366 2361 2352 2358 2355 2364 2355 2360 2359 2361 2351 2381 2362 2373 2363 2366 2361 2347 2342 2357 2370 2355 2388 2364 2353 2347 2373 2391 2352 2385 2404 2424 2381 2582
2522 2484 2484 2434 2434 2408 2417 2431 2431 2418 2420 2414 2405 2413 2407 2402 2400 2409 2396 2412 2391 2404 2412 2403 2391 2395 2397 2388 2377 2386 2385 2370 2391 2377 2371 2377 2380 2374 2382 2372 2375 2366 2367 2374 2378 2363 2355 2377 2371 2365 2376 2366 2374 2376 2363 2366 2364 2364 2362 2356 2364 2349 2355 2352 2350 2362 2351 2340 2362 2350 2365 2362 2368 2376 2369 2367 2363 2363 2351 2361 2352 2350 2356 2361 2361 2351 2358 2350 2364 2358 2344 2363 2374 2354 2358 2342 2356 2355 2354 2348 2346 2351 2360 2351 2350 2351 2357 2371 2371 2370 2378 2366 2348 2365 2416 2363 2395 2455 2429 2464
2497 2455 2499 2454 2457 2455 2419 2432 2440 2419 2426 2434 2430 2394 2422 2405 2413 2393 2419 2408 2402 2402 2412 2388 2387 2395 2390 2371 2400 2400 2404 2386 2376 2390 2394 2393 2368 2393 2376 2370 2368 2394 2371 2378 2377 2377 2372 2385 2375 2364 2378 2382 2378 2373 2357 2371 2354 2360 2364 2370 2372 2353 2352 2361 2365 2366 2350 2365 2361 2357 2362 2362 2376 2355 2353 2364 2361 2365 2352 2370 2366 2360 2367 2358 2364 2362 2360 2370 2344 2356 2354 2357 2360 2364 2348 2352 2365 2375 2364 2358 2362 2372 2360 2362 2354 2369 2357 2370 2372 2350 2369 2386 2380 2327 2381 2456 2398 2434 2461 2540
2587 2548 2483 2462 2466 2459 2415 2425 2428 2423 2412 2430 2407 2411 2395 2392 2420 2408 2406 2394 2404 2411 2409 2404 2399 2386 2381 2406 2399 2395 2406 2363 2389 2379 2365 2396 2385 2368 2374 2382 2384 2363 2375 2371 2381 2377 2369 2362 2371 2349 2371 2373 2365 2345 2379 2366 2360 2345 2353 2355 2359 2364 2341 2355 2357 2358 2357 2352 2353 2347 2347 2365 2350 2356 2368 2348 2352 2366 2363 2354 2358 2361 2360 2355 2368 2359 2362 2354 2355 2365 2330 2365 2367 2359 2357 2336 2360 2344 2369 2352 2338 2344 2364 2363 2347 2349 2367 2356 2360 2366 2375 2373 2385 2365 2389 2350 2362 2415 2483 2526
2547 2549 2467 2472 2487 2452 2437 2420 2404 2429 2430 2439 2435 2424 2391 2415 2407 2402 2417 2410 2429 2408 2384 2384 2406 2385 2407 2377 2395 2396 2372 2387 2380 2367 2381 2380 2386 2386 2386 2368 2386 2384 2357 2373 2375 2375 2370 2381 2363 2366 2382 2356 2358 2380 2361 2369 2358 2355 2352 2358 2363 2357 2372 2374 2342 2361 2366 2367 2362 2356 2341 2361 2354 2358 2372 2356 2362 2366 2372 2373 2374 2343 2359 2365 2365 2371 2363 2342 2346 2359 2358 2356 2339 2344 2356 2356 2375 2365 2344 2369 2356 2347 2351 2376 2353 2367 2349 2382 2358 2362 2361 2357 2376 2368 2351 2400 2447 2485 2421 2513
2578 2575 2497 2478 2454 2447 2446 2441 2445 2423 2418 2437 2422 2420 2396 2414 2426 2399 2402 2409 2405 2405 2422 2407 2398 2383 2388 2393 2399 2363 2385 2383 2390 2367 2389 2375 2386 2373 2375 2373 2368 2354 2375 2376 2368 2371 2367 2360 2377 2370 2358 2365 2349 2371 2357 2372 2358 2357 2365 2356 2360 2356 2389 2367 2365 2364 2378 2366 2338 2374 2354 2366 2357 2353 2354 2355 2354 2355 2350 2364 2345 2352 2328 2341 2357 2333 2357 2345 2345 2357 2351 2358 2344 2350 2352 2343 2350 2344 2340 2345 2354 2366 2343 2347 2342 2355 2346 2352 2368 2366 2346 2351 2370 2347 2338 2364 2435 2692 2455 2537
2624 2586 2562 2461 2489 2493 2511 2456 2429 2388 2436 2446 2416 2388 2429 2417 2403 2410 2433 2400 2390 2406 2383 2391 2408 2398 2416 2392 2402 2394 2375 2376 2374 2376 2393 2377 2359 2362 2365 2387 2364 2357 2352 2370 2374 2371 2354 2379 2357 2375 2353 2361 2367 2351 2353 2359 2360 2367 2345 2356 2359 2351 2364 2354 2368 2358 2360 2336 2354 2352 2355 2358 2355 2355 2346 2346 2368 2351 2340 2359 2355 2363 2341 2361 2368 2359 2354 2362 2351 2358 2339 2355 2341 2348 2351 2362 2343 2345 2361 2348 2361 2373 2346 2348 2323 2369 2368 2365 2354 2347 2381 2360 2373 2434 2427 2461 2450 2465 2474 0
2667 2621 2637 2521 2557 2494 2545 2487 2454 2429 2448 2445 2451 2425 2434 2424 2422 2407 2409 2423 2437 2447 2413 2397 2413 2418 2384 2420 2406 2394 2381 2392 2411 2398 2391 2378 2380 2367 2390 2381 2372 2359 2385 2350 2359 2397 2384 2352 2378 2394 2384 2375 2372 2356 2354 2367 2350 2365 2376 2366 2375 2365 2363 2359 2373 2378 2362 2363 2355 2381 2377 2365 2353 2374 2361 2364 2385 2372 2361 2359 2365 2365 2350 2353 2369 2365 2370 2361 2353 2368 2361 2356 2391 2352 2357 2381 2374 2350 2359 2372 2362 2340 2360 2366 2337 2375 2356 2371 2360 2397 2371 2408 2358 2403 2438 2495 2524 2582 2586 0
2887 2774 2622 2586 2566 2606 2430 2508 2441 2498 2446 2453 2470 2431 2423 2452 2411 2411 2384 2430 2385 2419 2395 2408 2395 2407 2390 2399 2396 2382 2398 2405 2382 2389 2380 2384 2375 2393 2378 2372 2368 2363 2376 2378 2385 2379 2378 2361 2383 2385 2355 2361 2362 2357 2358 2359 2343 2337 2372 2354 2352 2362 2350 2358 2373 2351 2365 2344 2371 2366 2355 2350 2362 2331 2353 2355 2355 2364 2350 2391 2346 2348 2363 2360 2344 2351 2333 2348 2352 2341 2337 2340 2371 2375 2356 2373 2353 2371 2350 2356 2365 2361 2351 2349 2370 2370 2358 2376 2338 2393 2362 2411 2357 2480 2387 2482 2604 0 0 0
3100 3056 2833 2584 2619 2657 2633 2681 2543 2514 2474 2443 2424 2470 2463 2435 2439 2427 2409 2427 2471 2439 2435 2412 2406 2365 2416 2367 2386 2374 2391 2380 2380 2363 2392 2381 2373 2370 2366 2362 2372 2366 2349 2365 2357 2355 2356 2379 2367 2351 2353 2382 2356 2353 2352 2333 2372 2381 2353 2350 2374 2361 2357 2364 2363 2347 2364 2359 2362 2359 2358 2345 2348 2331 2377 2341 2364 2343 2358 2370 2345 2361 2343 2373 2358 2363 2340 2370 2356 2363 2347 2364 2360 2358 2352 2346 2376 2346 2363 2360 2345 2345 2361 2372 2308 2347 2376 2382 2401 2396 2438 2449 2526 2431 2472 0 0 0 0 0
3465 3144 3035 2757 2748 2653 0 2691 2722 2556 2414 2492 2436 2502 2499 2438 2475 2436 2377 2432 2398 2454 2435 2413 2400 2410 2378 2403 2343 2367 2389 2374 2367 2366 2399 2390 2367 2360 2333 2354 2369 2384 2372 2359 2353 2359 2340 2377 2353 2372 2377 2355 2341 2356 2344 2362 2340 2358 2363 2369 2321 2348 2358 2360 2353 2361 2349 2359 2348 2343 2338 2341 2363 2330 2330 2346 2354 2352 2358 2379 2355 2343 2346 2344 2348 2362 2339 2345 2360 2349 2349 2328 2362 2351 2367 2350 2314 2340 2336 2376 2341 2336 2356 2421 2347 2364 2358 2392 2394 2350 2433 2313 2494 2416 2504 0 0 0 0 0
3943 3411 3243 3105 0 0 0 0 0 2783 2572 2549 2517 2448 2463 2439 2472 2440 2486 2465 2468 2477 2576 2444 2415 2437 2415 2404 2411 2406 2411 2374 2385 2400 2397 2437 2407 2384 2386 2377 2410 2355 2391 2365 2385 2382 2346 2361 2324 2347 2339 2387 2379 2391 2336 2356 2346 2359 2322 2346 2356 2372 2369 2341 2359 2351 2335 2352 2346 2353 2360 2331 2354 2379 2346 2386 2383 2351 2371 2345 2351 2394 2365 2326 2358 2358 2362 2377 2371 2378 2376 2375 2361 2350 2353 2352 2356 2397 2365 2375 2428 2396 2478 2413 2385 2356 2381 2422 2481 2440 2404 2509 2613 0 0 0 0 0 0 0
3987 3841 3184 3350 0 0 0 0 0 0 2726 2595 2609 2615 0 2591 2534 2652 2501 2468 2482 2514 0 2442 2500 2419 2453 2402 2418 2439 2420 2415 2508 2426 2418 2422 2402 2394 2393 2381 2359 2399 2425 2389 2418 2367 2414 2415 2414 2391 2391 2360 2387 2350 2351 2384 2343 2343 2372 2378 2357 2393 2386 2339 2323 2379 2376 2362 2323 2388 2333 2338 2378 2394 2290 2394 2377 2430 2414 2392 2376 2363 2359 2394 2394 2355 2384 2390 2381 2374 2432 2385 2383 2390 2374 2408 2355 2389 2358 2409 2395 2363 2394 2344 2415 2427 2375 2449 2412 2393 2519 2558 2520 0 0 0 0 0 0 0
4066 3871 3575 0 0 0 0 0 0 0 0 2728 0 0 0 0 2606 2655 2472 2451 2524 2511 0 2600 2493 2493 2456 2374 2452 2415 2441 2437 2457 2441 2508 2368 2379 2378 2403 2399 2368 2321 2385 2396 2418 2372 2391 2332 2358 2376 2404 2402 2336 2362 2337 2334 2378 2356 2343 2382 2365 2354 2330 2317 2341 2400 2347 2357 2386 2369 2379 2372 2320 2345 2421 2288 2352 2383 2465 2370 2365 2449 2390 2323 2375 2352 2360 2335 2372 2327 2371 2405 2411 2345 2367 2376 2360 2388 2338 2367 2362 2404 2316 2415 2431 2437 2373 2464 2483 2430 2513 2538 2521 0 0 0 0 0 0 0
