0 0 0 2796 0 0 0 0 0 2819 0 2834 0 2676 2471 2485 2487 2454 2438 2488 2471 2408 2398 2411 2421 2463 2430 2346 2424 2422 2367 2421 2353 2416 2359 2447 2443 2421 2316 2376 2371 2355 2378 2396 2343 2295 0 2480 2495 2486 0 0 2565 2402 2322 2390 2363 2346 2295 2333 2365 2351 2351 2349 2359 2357 2340 2381 2314 2348 2336 2350 2373 2398 2389 2309 2357 2331 2333 2345 2342 2380 2330 2360 2342 2372 2335 2375 2343 2359 2318 2427 2437 2396 2372 2379 2355 2442 2431 2419 2356 2407 2392 2379 2375 2404 2423 2402 2406 2436 2428 0 0 0 0 0 0 0 0 0
0 0 2730 2607 0 0 0 2683 2638 2661 2624 2525 2559 2528 2471 2461 2534 2416 2463 2436 2394 2374 2411 2502 2441 2487 2424 2520 2411 2373 2372 2389 2385 2401 2484 2386 2369 2374 2369 2313 2373 2381 2351 2359 2374 2400 0 0 2490 2468 0 0 2271 2354 2363 2351 2321 2321 2343 2310 2317 2323 2368 2353 2377 2355 2349 2360 2336 2358 2360 2357 2340 2371 2373 2367 2357 2356 2371 2355 2370 2357 2335 2382 2310 2370 2376 2355 2362 2388 2334 2373 2435 2370 2428 2492 2401 2400 2418 2410 2389 2381 2385 2398 2374 2400 2393 2397 2360 2420 2450 2482 0 0 0 0 0 0 0 0
0 2812 2703 2741 0 0 0 2519 2475 2432 2527 2495 2472 2450 2410 2429 2432 2464 2441 2356 2407 2370 2399 2386 2391 2393 2419 2420 2383 2374 2395 2385 2363 2348 2391 2411 2328 2355 2377 2378 2339 2365 2343 2326 2331 2321 2302 0 0 2365 0 2291 2376 2336 2311 2327 2333 2330 2328 2334 2350 2332 2367 2333 2327 2359 2353 2388 2328 2362 2345 2360 2322 2355 2346 2350 2317 2348 2349 2369 2345 2375 2297 2328 2329 2353 2330 2359 2344 2335 2355 2365 2290 2343 2362 2315 2347 2374 2389 2401 2359 2351 2337 2390 2367 2357 2340 2297 2367 2359 2360 2377 2491 2356 0 0 0 0 0 0
2764 2777 2610 2771 2739 2616 2638 2482 2437 2447 2420 2497 2435 2436 2452 2412 2441 2404 2382 2417 2397 2430 2382 2394 2352 2411 2359 2365 2369 2406 2368 2373 2356 2365 2360 2392 2357 2328 2366 2373 2361 2400 2320 2362 2371 2321 2339 2351 2364 2341 2320 2344 2359 2343 2338 2337 2345 2351 2320 2362 2354 2328 2319 2388 2341 2342 2341 2361 2332 2343 2343 2363 2328 2336 2341 2346 2347 2341 2363 2364 2346 2306 2355 2315 2338 2354 2338 2353 2344 2355 2340 2376 2338 2338 2340 2359 2389 2294 2413 2367 2365 2365 2342 2384 2368 2325 2357 2357 2352 2371 2384 2384 2354 2394 0 0 0 0 0 0
2847 2852 2805 2553 2472 2618 2476 2428 2435 2442 2430 2399 2445 2415 2389 2439 2386 2390 2404 2395 2409 2378 2412 2404 2387 2391 2354 2357 2397 2347 2345 2349 2338 2349 2371 2368 2325 2350 2380 2326 2369 2359 2345 2334 2363 2376 2330 2355 2345 2343 2340 2330 2314 2358 2333 2347 2323 2352 2348 2359 2338 2329 2327 2363 2376 2344 2327 2329 2336 2333 2316 2332 2361 2344 2335 2346 2333 2348 2327 2355 2330 2330 2355 2340 2338 2334 2338 2334 2344 2342 2346 2338 2372 2339 2342 2342 2353 2355 2366 2345 2382 2362 2337 2387 2371 2347 2379 2359 2367 2309 2365 2342 2364 2437 2381 0 0 0 0 0
2692 2575 2564 2528 2473 2469 2500 2423 2406 2431 2419 2390 2429 2418 2389 2415 2402 2408 2421 2387 2385 2371 2380 2373 2379 2383 2368 2374 2374 2383 2361 2368 2399 2361 2403 2382 2358 2354 2348 2357 2349 2350 2343 2356 2340 2365 2355 2355 2345 2354 2345 2345 2355 2362 2322 2373 2326 2338 2348 2357 2351 2333 2366 2342 2357 2350 2343 2354 2362 2343 2349 2360 2329 2361 2348 2345 2371 2331 2351 2332 2377 2372 2352 2372 2377 2337 2374 2365 2360 2351 2351 2369 2377 2338 2331 2359 2342 2353 2354 2338 2337 2367 2376 2355 2328 2350 2363 2366 2345 2359 2359 2416 2380 2432 2367 2462 2421 0 0 0
2688 2607 2518 2488 2433 2464 2413 2448 2423 2412 2393 2401 2441 2393 2390 2391 2402 2413 2394 2380 2399 2373 2382 2360 2373 2387 2375 2370 2388 2351 2353 2370 2349 2372 2381 2401 2351 2367 2349 2341 2350 2355 2343 2372 2353 2386 2348 2346 2361 2340 2331 2340 2345 2355 2349 2329 2353 2345 2353 2352 2334 2338 2351 2338 2336 2339 2354 2356 2355 2357 2340 2349 2351 2359 2340 2323 2341 2346 2360 2353 2332 2343 2343 2371 2363 2345 2320 2355 2365 2351 2334 2334 2359 2355 2353 2329 2349 2376 2354 2358 2341 2333 2339 2362 2421 2352 2338 2339 2363 2378 2356 2389 2335 2389 2374 2386 2479 0 0 0
2675 2577 2490 2426 2437 2435 2429 2431 2394 2433 2409 2392 2412 2414 2385 2390 2391 2380 2376 2386 2401 2373 2383 2382 2384 2394 2376 2358 2368 2382 2383 2356 2382 2355 2364 2369 2385 2351 2359 2361 2362 2351 2344 2369 2347 2343 2343 2340 2329 2345 2338 2348 2346 2338 2343 2333 2341 2358 2350 2352 2341 2356 2347 2340 2340 2336 2350 2349 2340 2346 2357 2348 2319 2352 2348 2347 2333 2350 2338 2364 2353 2331 2335 2361 2365 2350 2343 2348 2349 2336 2356 2363 2353 2349 2325 2336 2343 2332 2363 2346 2356 2345 2344 2382 2328 2383 2356 2371 2339 2332 2378 2384 2414 2338 2395 2406 2383 2449 0 0
2578 2519 2418 2451 2428 2464 2429 2401 2393 2403 2407 2421 2436 2406 2381 2398 2391 2371 2392 2388 2392 2376 2363 2387 2388 2366 2361 2370 2357 2395 2375 2358 2387 2373 2370 2370 2355 2360 2352 2356 2358 2363 2374 2340 2371 2370 2348 2360 2342 2349 2358 2362 2346 2343 2344 2349 2354 2356 2345 2357 2360 2328 2353 2358 2340 2352 2345 2323 2331 2351 2352 2340 2351 2339 2346 2345 2346 2330 2340 2348 2343 2339 2361 2345 2347 2342 2334 2352 2351 2345 2370 2353 2369 2331 2378 2353 2344 2364 2363 2340 2340 2327 2350 2371 2358 2374 2364 2368 2350 2354 2371 2381 2378 2406 2404 2343 2415 2419 2462 0
2558 2485 2503 2407 2417 2450 2440 2413 2418 2410 2436 2401 2401 2392 2389 2388 2390 2375 2382 2370 2380 2386 2375 2391 2391 2365 2369 2363 2374 2370 2351 2370 2354 2356 2376 2374 2355 2353 2341 2368 2355 2371 2342 2348 2345 2344 2355 2372 2357 2348 2339 2341 2352 2357 2347 2339 2345 2353 2355 2346 2349 2337 2346 2346 2360 2345 2351 2352 2361 2346 2337 2338 2333 2362 2350 2358 2341 2347 2348 2352 2334 2338 2358 2336 2355 2344 2359 2334 2342 2342 2351 2360 2359 2371 2352 2339 2351 2333 2357 2356 2347 2335 2349 2334 2362 2371 2337 2353 2342 2360 2374 2346 2408 2404 2371 2375 2416 2399 2410 0
2447 2493 2472 2443 2433 2435 2430 2407 2422 2414 2398 2391 2399 2396 2402 2388 2383 2386 2380 2395 2377 2362 2370 2367 2361 2371 2360 2369 2365 2374 2363 2350 2372 2368 2370 2363 2365 2368 2361 2349 2364 2336 2364 2361 2359 2351 2352 2349 2356 2356 2369 2361 2341 2356 2349 2353 2342 2332 2352 2337 2349 2342 2348 2352 2345 2354 2343 2350 2349 2343 2344 2362 2350 2335 2333 2358 2335 2348 2337 2342 2358 2353 2350 2366 2349 2339 2343 2355 2355 2360 2346 2345 2335 2362 2342 2361 2366 2337 2347 2364 2339 2366 2353 2355 2341 2380 2354 2345 2370 2366 2353 2367 2358 2442 2382 2403 2398 2417 2419 2422
2485 2469 2418 2397 2427 2410 2411 2396 2413 2404 2363 2414 2378 2379 2393 2390 2380 2372 2379 2365 2388 2359 2373 2387 2383 2359 2371 2368 2364 2379 2380 2354 2375 2354 2380 2362 2365 2354 2360 2367 2360 2362 2353 2342 2356 2360 2333 2345 2358 2347 2353 2351 2339 2361 2330 2343 2359 2351 2360 2339 2348 2347 2338 2358 2333 2352 2348 2336 2341 2355 2347 2364 2344 2349 2347 2348 2340 2352 2340 2352 2362 2337 2353 2332 2354 2346 2351 2358 2343 2344 2342 2362 2348 2343 2348 2355 2372 2328 2343 2343 2347 2339 2362 2344 2357 2356 2348 2355 2333 2334 2341 2383 2367 2378 2336 2443 2350 2370 2426 2430
2507 2465 2427 2431 2426 2459 2398 2399 2434 2384 2377 2378 2407 2400 2388 2369 2380 2367 2385 2372 2363 2382 2377 2380 2368 2369 2364 2375 2374 2369 2371 2359 2366 2360 2371 2379 2366 2361 2355 2367 2360 2350 2358 2359 2349 2360 2347 2355 2354 2358 2342 2343 2366 2335 2354 2343 2350 2352 2355 2357 2359 2348 2357 2358 2346 2349 2363 2352 2349 2335 2342 2339 2352 2348 2353 2348 2349 2353 2339 2351 2358 2358 2350 2349 2326 2338 2352 2349 2351 2347 2351 2362 2344 2343 2355 2363 2346 2344 2353 2352 2343 2346 2345 2365 2351 2354 2342 2341 2356 2353 2336 2334 2331 2361 2340 2371 2404 2365 2443 2475
2528 2502 2427 2460 2400 2452 2427 2442 2400 2396 2413 2409 2393 2402 2381 2386 2384 2377 2392 2390 2380 2388 2386 2375 2374 2385 2367 2358 2363 2374 2383 2374 2370 2366 2382 2359 2372 2321 2367 2356 2361 2357 2358 2373 2346 2368 2340 2349 2351 2345 2342 2343 2350 2356 2348 2360 2355 2349 2333 2351 2361 2346 2337 2350 2355 2358 2350 2355 2344 2340 2346 2347 2336 2340 2339 2340 2335 2353 2345 2338 2341 2354 2342 2358 2351 2344 2367 2351 2355 2372 2360 2338 2362 2348 2364 2352 2349 2355 2350 2353 2349 2361 2360 2350 2352 2347 2353 2348 2369 2349 2338 2358 2350 2358 2366 2385 2392 2397 2416 2481
2464 2435 2423 2393 2423 2397 2381 2407 2400 2405 2406 2399 2388 2399 2393 2368 2371 2375 2370 2377 2364 2398 2372 2364 2387 2387 2364 2380 2377 2368 2378 2373 2364 2361 2359 2359 2358 2368 2358 2371 2350 2355 2356 2355 2355 2359 2357 2361 2345 2356 2346 2363 2351 2349 2350 2348 2340 2354 2344 2344 2350 2353 2344 2361 2353 2367 2353 2351 2347 2344 2353 2352 2347 2346 2346 2346 2344 2349 2347 2341 2361 2349 2352 2341 2368 2349 2355 2340 2358 2359 2353 2364 2358 2361 2352 2345 2338 2344 2354 2352 2350 2354 2341 2355 2350 2359 2353 2350 2354 2356 2336 2350 2356 2362 2374 2341 2342 2351 2432 2403
2439 2412 2407 2426 2428 2427 2399 2405 2373 2381 2392 2386 2393 2370 2373 2389 2375 2372 2374 2387 2373 2375 2386 2372 2368 2377 2368 2382 2370 2371 2376 2362 2374 2368 2380 2380 2356 2356 2370 2357 2362 2359 2354 2362 2365 2365 2360 2362 2350 2353 2352 2355 2353 2355 2366 2361 2343 2348 2359 2356 2356 2354 2367 2346 2354 2354 2357 2356 2348 2346 2358 2343 2360 2345 2356 2347 2353 2348 2354 2352 2357 2356 2359 2361 2357 2354 2348 2356 2356 2355 2369 2341 2359 2351 2356 2347 2349 2359 2372 2356 2355 2367 2344 2352 2379 2366 2353 2355 2352 2352 2368 2370 2359 2371 2371 2362 2346 2397 2300 2368
2422 2407 2422 2402 2382 2445 2408 2381 2384 2385 2397 2364 2385 2376 2377 2369 2384 2369 2366 2377 2366 2367 2363 2371 2373 2376 2362 2358 2375 2359 2364 2352 2355 2357 2361 2362 2346 2361 2371 2355 2366 2359 2357 2364 2358 2361 2345 2357 2348 2352 2350 2362 2347 2347 2334 2349 2341 2341 2354 2346 2347 2348 2339 2347 2343 2348 2355 2350 2355 2340 2341 2335 2351 2350 2346 2348 2354 2339 2342 2337 2358 2351 2346 2345 2346 2346 2348 2349 2340 2340 2358 2363 2370 2351 2345 2349 2340 2356 2338 2343 2359 2357 2356 2347 2342 2348 2347 2364 2337 2343 2352 2346 2372 2348 2345 2383 2391 2362 2337 2436
2408 2414 2433 2427 2402 2378 2385 2400 2384 2379 2381 2380 2379 2372 2382 2376 2387 2376 2379 2384 2391 2375 2379 2365 2360 2359 2356 2376 2358 2359 2370 2362 2354 2363 2367 2358 2360 2358 2353 2358 2366 2359 2353 2356 2354 2356 2350 2349 2358 2354 2353 2347 2352 2356 2354 2359 2353 2350 2352 2342 2344 2360 2343 2344 2342 2346 2346 2346 2346 2351 2350 2348 2351 2340 2331 2348 2354 2345 2344 2341 2350 2356 2354 2337 2349 2348 2353 2340 2349 2353 2345 2349 2355 2348 2346 2361 2344 2340 2340 2348 2348 2348 2358 2348 2353 2357 2347 2343 2347 2359 2347 2358 2383 2383 2378 2349 2367 2356 2399 2373
2448 2439 2434 2405 2398 2408 2398 2391 2375 2380 2391 2389 2373 2356 2382 2384 2378 2378 2373 2378 2374 2374 2371 2369 2365 2376 2373 2357 2372 2353 2366 2374 2370 2354 2372 2364 2370 2362 2361 2361 2363 2359 2358 2356 2353 2357 2357 2349 2347 2353 2352 2354 2348 2351 2353 2346 2347 2347 2347 2350 2344 2356 2361 2355 2357 2346 2341 2350 2347 2358 2358 2349 2343 2353 2350 2343 2349 2352 2342 2350 2355 2351 2348 2354 2354 2352 2341 2350 2346 2356 2353 2355 2365 2350 2346 2349 2357 2337 2363 2355 2352 2353 2346 2339 2342 2358 2347 2350 2344 2344 2358 2335 2343 2355 2369 2348 2357 2365 2419 2399
2427 2422 2417 2409 2403 2390 2397 2402 2382 2390 2391 2394 2379 2379 2373 2381 2373 2369 2361 2372 2369 2360 2364 2363 2367 2366 2363 2367 2360 2374 2363 2358 2361 2372 2360 2360 2367 2365 2358 2352 2358 2363 2351 2353 2354 2353 2351 2353 2349 2352 2349 2353 2357 2349 2350 2352 2344 2348 2356 2354 2346 2350 2338 2337 2350 2349 2355 2356 2351 2353 2344 2349 2342 2352 2354 2345 2354 2341 2348 2349 2335 2338 2333 2349 2345 2344 2343 2346 2347 2353 2352 2348 2341 2346 2348 2346 2343 2350 2354 2346 2335 2353 2343 2352 2342 2354 2341 2347 2350 2335 2350 2340 2341 2358 2357 2366 2376 2353 2405 2378
2426 2440 2420 2409 2422 2406 2381 2405 2389 2385 2386 2386 2374 2377 2379 2381 2371 2362 2379 2383 2366 2366 2364 2368 2376 2354 2374 2380 2376 2365 2366 2374 2358 2361 2364 2353 2366 2362 2369 2353 2363 2354 2356 2350 2355 2356 2352 2351 2351 2337 2349 2342 2355 2351 2349 2352 2340 2357 2350 2347 2360 2347 2357 2351 2351 2355 2346 2349 2346 2356 2348 2352 2348 2350 2347 2337 2342 2346 2345 2360 2349 2352 2341 2340 2349 2351 2348 2361 2357 2351 2352 2355 2348 2349 2348 2350 2337 2360 2357 2357 2348 2348 2349 2337 2345 2355 2340 2349 2349 2333 2353 2358 2356 2364 2341 2355 2348 2359 2377 2464
2422 2416 2423 2370 2389 2416 2402 2390 2386 2386 2378 2395 2364 2368 2381 2378 2365 2369 2363 2380 2381 2362 2362 2374 2373 2375 2365 2368 2365 2363 2363 2367 2362 2359 2358 2357 2355 2356 2365 2348 2355 2342 2346 2357 2350 2348 2360 2353 2361 2358 2352 2341 2348 2348 2346 2363 2354 2352 2342 2349 2336 2347 2349 2347 2350 2361 2350 2349 2354 2348 2353 2347 2341 2346 2351 2344 2340 2349 2332 2339 2343 2346 2334 2349 2346 2347 2352 2345 2350 2358 2345 2346 2362 2338 2355 2336 2336 2352 2355 2347 2349 2345 2357 2348 2348 2359 2362 2362 2344 2357 2351 2347 2346 2351 2363 2338 2366 2379 2381 2421
2410 2429 2410 2384 2421 2403 2392 2388 2382 2381 2390 2380 2370 2372 2384 2367 2382 2369 2381 2372 2374 2363 2368 2368 2366 2369 2361 2368 2368 2369 2364 2364 2369 2365 2381 2356 2365 2366 2356 2359 2359 2351 2348 2353 2349 2352 2354 2351 2346 2356 2353 2350 2353 2352 2346 2336 2357 2346 2344 2339 2349 2338 2351 2347 2338 2351 2348 2339 2345 2341 2350 2346 2352 2346 2346 2348 2340 2341 2349 2345 2339 2349 2346 2355 2344 2351 2337 2343 2347 2338 2350 2340 2344 2342 2352 2358 2342 2348 2338 2347 2354 2356 2344 2353 2345 2350 2357 2348 2345 2338 2341 2346 2348 2342 2334 2342 2334 2377 2385 2348
2436 2381 2406 2422 2416 2396 2382 2398 2412 2379 2387 2377 2381 2379 2366 2372 2359 2367 2380 2362 2372 2371 2375 2364 2360 2371 2355 2367 2366 2361 2365 2353 2362 2361 2363 2359 2357 2358 2358 2361 2347 2363 2360 2346 2351 2349 2347 2353 2347 2355 2356 2355 2350 2342 2349 2347 2342 2352 2355 2353 2336 2342 2351 2350 2340 2348 2343 2357 2341 2346 2333 2341 2338 2342 2349 2336 2341 2344 2339 2349 2328 2338 2344 2345 2352 2344 2340 2347 2341 2356 2335 2355 2348 2348 2345 2340 2346 2350 2335 2337 2346 2359 2343 2343 2346 2349 2350 2355 2347 2336 2349 2347 2354 2338 2372 2367 2355 2362 2380 2420
2415 2391 2419 2418 2419 2390 2385 2377 2381 2385 2400 2389 2387 2380 2377 2377 2375 2374 2368 2363 2369 2367 2375 2367 2365 2359 2369 2366 2363 2362 2368 2373 2368 2352 2346 2348 2349 2360 2360 2356 2350 2350 2346 2352 2354 2345 2355 2349 2348 2345 2350 2352 2346 2337 2352 2343 2354 2349 2353 2350 2349 2346 2349 2351 2337 2348 2351 2350 2344 2344 2337 2342 2339 2346 2350 2345 2346 2352 2343 2341 2349 2349 2344 2344 2351 2343 2339 2342 2342 2357 2363 2353 2339 2354 2351 2349 2350 2340 2343 2347 2349 2349 2347 2355 2341 2345 2341 2340 2339 2357 2357 2348 2350 2334 2345 2333 2368 2336 2360 2388
2413 2414 2425 2417 2409 2406 2385 2385 2385 2392 2397 2381 2388 2374 2381 2382 2375 2378 2370 2368 2360 2360 2368 2374 2377 2364 2363 2366 2369 2365 2357 2377 2378 2370 2369 2356 2356 2351 2361 2360 2352 2359 2353 2355 2355 2356 2357 2352 2353 2359 2349 2350 2354 2343 2342 2340 2345 2352 2339 2344 2355 2347 2345 2362 2349 2341 2355 2343 2339 2343 2343 2358 2336 2348 2349 2347 2350 2350 2347 2346 2344 2345 2346 2342 2353 2346 2339 2351 2345 2338 2356 2354 2357 2355 2360 2345 2352 2364 2344 2346 2351 2340 2342 2355 2347 2339 2345 2341 2355 2362 2353 2356 2357 2339 2354 2361 2341 2384 2355 2379
2406 2413 2458 2412 2409 2413 2392 2384 2378 2378 2383 2391 2379 2385 2372 2370 2370 2369 2369 2371 2378 2363 2363 2370 2365 2370 2361 2372 2368 2365 2356 2368 2358 2360 2355 2366 2360 2358 2357 2358 2352 2354 2352 2352 2358 2350 2344 2348 2349 2348 2352 2344 2355 2346 2349 2341 2342 2350 2347 2347 2352 2347 2347 2339 2353 2347 2357 2347 2357 2324 2342 2341 2343 2347 2347 2337 2347 2340 2345 2343 2345 2338 2344 2343 2355 2344 2352 2349 2349 2347 2354 2343 2346 2353 2346 2349 2352 2349 2359 2348 2345 2345 2346 2352 2354 2354 2347 2333 2342 2350 2341 2349 2333 2346 2353 2336 2372 2329 2349 2338
2422 2402 2425 2403 2398 2394 2390 2398 2390 2386 2379 2383 2384 2389 2376 2391 2374 2381 2382 2381 2373 2380 2378 2374 2370 2373 2352 2373 2368 2364 2371 2361 2371 2373 2371 2359 2372 2364 2359 2362 2363 2360 2356 2355 2353 2356 2357 2353 2346 2353 2357 2351 2347 2350 2355 2356 2342 2350 2356 2347 2358 2353 2346 2350 2350 2357 2353 2337 2353 2353 2345 2347 2339 2346 2344 2344 2348 2345 2359 2348 2349 2351 2342 2343 2350 2345 2353 2346 2364 2347 2365 2364 2353 2355 2353 2347 2342 2351 2351 2356 2350 2349 2345 2347 2355 2336 2344 2352 2344 2359 2356 2349 2347 2364 2331 2344 2378 2373 2364 2373
2417 2408 2453 2424 2398 2432 2398 2401 2389 2409 2383 2397 2379 2380 2368 2372 2382 2375 2367 2377 2390 2377 2364 2378 2370 2377 2368 2358 2360 2371 2371 2362 2370 2373 2350 2359 2354 2359 2356 2358 2358 2353 2350 2352 2355 2349 2352 2345 2359 2352 2358 2340 2346 2353 2349 2348 2341 2356 2352 2350 2357 2347 2341 2351 2355 2350 2345 2350 2339 2345 2342 2348 2341 2344 2348 2351 2343 2343 2342 2340 2347 2347 2337 2354 2342 2338 2348 2360 2350 2348 2351 2355 2350 2346 2345 2355 2349 2344 2353 2345 2351 2358 2356 2352 2353 2352 2352 2359 2362 2349 2353 2355 2336 2340 2345 2329 2342 2354 2357 2408
2423 2414 2419 2389 2413 2413 2419 2385 2398 2391 2394 2380 2386 2374 2374 2374 2379 2371 2372 2364 2378 2386 2372 2366 2378 2365 2365 2361 2358 2355 2367 2369 2358 2365 2367 2363 2356 2357 2358 2357 2356 2350 2355 2357 2358 2355 2349 2349 2352 2348 2344 2348 2348 2347 2349 2353 2345 2352 2352 2343 2346 2350 2343 2357 2350 2345 2343 2346 2355 2349 2345 2341 2339 2343 2351 2347 2351 2348 2339 2347 2343 2335 2342 2354 2347 2353 2350 2351 2352 2335 2344 2350 2357 2355 2353 2347 2347 2356 2339 2359 2356 2359 2353 2339 2341 2348 2354 2361 2360 2357 2338 2346 2342 2356 2330 2359 2382 2376 2349 2401
2407 2395 2403 2394 2413 2409 2385 2394 2366 2392 2388 2381 2364 2389 2382 2378 2362 2364 2377 2361 2371 2365 2372 2369 2363 2362 2370 2360 2370 2358 2366 2369 2362 2360 2362 2362 2361 2364 2358 2351 2356 2352 2352 2352 2345 2356 2342 2349 2360 2353 2347 2344 2342 2350 2349 2346 2349 2347 2352 2338 2350 2345 2350 2348 2344 2342 2353 2340 2346 2345 2334 2346 2348 2349 2342 2338 2340 2349 2343 2345 2342 2345 2338 2345 2347 2343 2348 2341 2342 2362 2349 2348 2360 2344 2340 2359 2337 2338 2346 2350 2348 2354 2354 2352 2350 2349 2350 2347 2353 2350 2357 2348 2349 2350 2348 2345 2365 2338 2331 2350
2426 2417 2424 2401 2393 2400 2392 2389 2386 2383 2390 2386 2390 2374 2373 2384 2382 2389 2364 2370 2381 2376 2358 2381 2360 2361 2384 2368 2365 2364 2360 2371 2364 2370 2352 2358 2360 2361 2360 2361 2362 2352 2359 2355 2351 2353 2355 2359 2351 2346 2352 2347 2358 2345 2343 2353 2344 2338 2349 2338 2346 2351 2345 2360 2349 2341 2344 2345 2351 2350 2351 2355 2346 2349 2350 2351 2346 2343 2348 2346 2343 2348 2342 2347 2338 2345 2339 2350 2340 2349 2354 2356 2357 2352 2349 2347 2353 2354 2347 2346 2344 2352 2360 2340 2358 2357 2350 2348 2343 2350 2357 2351 2359 2349 2359 2389 2339 2362 2386 2340
2422 2396 2422 2385 2397 2406 2389 2393 2377 2401 2382 2387 2394 2374 2376 2380 2364 2374 2366 2370 2377 2379 2377 2370 2365 2367 2369 2375 2367 2377 2362 2372 2351 2360 2355 2361 2365 2354 2357 2355 2352 2352 2351 2354 2358 2357 2356 2354 2353 2348 2350 2351 2349 2346 2349 2352 2349 2339 2342 2352 2351 2357 2355 2357 2350 2345 2346 2355 2351 2349 2350 2344 2342 2352 2349 2351 2342 2351 2356 2352 2341 2346 2354 2342 2338 2348 2352 2351 2351 2359 2342 2358 2355 2355 2352 2348 2355 2345 2354 2349 2361 2345 2348 2342 2342 2342 2346 2355 2357 2341 2335 2333 2344 2348 2357 2359 2377 2345 2328 2409
2423 2432 2431 2403 2406 2435 2401 2403 2393 2390 2398 2378 2368 2368 2388 2370 2382 2382 2377 2379 2374 2373 2378 2373 2369 2366 2366 2382 2375 2372 2366 2362 2370 2366 2370 2367 2374 2361 2360 2364 2360 2350 2356 2354 2351 2358 2347 2357 2356 2353 2360 2347 2344 2347 2352 2351 2350 2348 2353 2360 2353 2354 2345 2351 2342 2357 2343 2351 2348 2353 2355 2350 2356 2346 2345 2349 2348 2342 2344 2344 2346 2341 2350 2347 2354 2349 2351 2351 2351 2354 2350 2345 2371 2347 2354 2348 2359 2354 2360 2358 2356 2364 2365 2349 2351 2350 2353 2344 2350 2352 2364 2336 2354 2367 2363 2360 2372 2380 2363 2390
2441 2407 2408 2408 2426 2429 2404 2413 2396 2393 2379 2373 2381 2386 2377 2391 2386 2370 2376 2368 2380 2374 2368 2366 2374 2365 2369 2365 2368 2369 2368 2359 2367 2363 2358 2353 2350 2353 2370 2353 2359 2352 2347 2354 2355 2353 2357 2360 2346 2352 2346 2357 2356 2357 2346 2348 2345 2352 2363 2350 2353 2338 2352 2340 2344 2352 2344 2351 2338 2349 2341 2353 2351 2351 2350 2349 2339 2350 2351 2341 2341 2343 2355 2348 2349 2352 2352 2343 2357 2354 2359 2359 2346 2352 2350 2353 2354 2352 2363 2357 2355 2347 2349 2356 2353 2354 2350 2340 2353 2352 2358 2365 2364 2334 2372 2376 2359 2401 2357 2429
2435 2461 2416 2412 2396 2414 2400 2379 2401 2391 2382 2388 2374 2388 2374 2367 2370 2381 2375 2388 2379 2379 2377 2374 2377 2369 2371 2370 2376 2376 2362 2372 2369 2361 2368 2364 2358 2354 2353 2363 2363 2357 2353 2356 2362 2359 2358 2347 2356 2358 2352 2348 2355 2349 2346 2351 2344 2342 2355 2353 2353 2351 2345 2348 2352 2350 2350 2344 2347 2350 2352 2343 2349 2341 2353 2352 2352 2358 2348 2353 2339 2351 2353 2352 2348 2351 2354 2353 2358 2360 2359 2352 2365 2348 2355 2359 2351 2356 2349 2347 2358 2346 2348 2345 2354 2349 2352 2345 2360 2360 2359 2371 2329 2366 2365 2347 2355 2384 2373 2406
2466 2420 2410 2400 2398 2398 2402 2395 2381 2401 2391 2385 2391 2380 2381 2376 2378 2377 2369 2367 2376 2366 2366 2360 2375 2362 2364 2363 2364 2365 2360 2362 2364 2364 2353 2364 2364 2357 2360 2358 2355 2356 2356 2349 2346 2356 2349 2350 2360 2352 2356 2348 2345 2343 2352 2351 2348 2348 2349 2352 2353 2355 2356 2354 2354 2356 2352 2344 2354 2356 2351 2338 2348 2343 2341 2345 2344 2343 2339 2337 2346 2347 2351 2345 2348 2352 2343 2352 2355 2353 2350 2349 2351 2363 2353 2358 2351 2344 2362 2351 2358 2357 2357 2357 2350 2354 2358 2355 2355 2354 2348 2347 2349 2358 2354 2354 2355 2372 2364 2304
2424 2430 2401 2406 2429 2412 2393 2395 2409 2418 2396 2397 2397 2376 2386 2380 2389 2371 2375 2378 2379 2385 2379 2378 2379 2376 2361 2365 2375 2362 2373 2366 2365 2372 2371 2367 2370 2363 2360 2366 2357 2363 2353 2357 2363 2356 2348 2352 2363 2347 2356 2354 2354 2359 2347 2352 2352 2347 2358 2350 2349 2354 2360 2366 2357 2348 2347 2342 2361 2356 2350 2345 2354 2348 2353 2349 2347 2350 2354 2337 2344 2359 2346 2356 2358 2351 2351 2352 2354 2369 2365 2350 2350 2355 2348 2350 2352 2355 2350 2361 2353 2362 2348 2349 2338 2348 2354 2359 2353 2348 2359 2342 2364 2369 2364 2344 2356 2383 2395 2373
2450 2432 2399 2410 2413 2406 2400 2390 2386 2393 2396 2380 2378 2366 2377 2384 2375 2376 2386 2374 2383 2369 2373 2366 2356 2375 2361 2362 2372 2362 2369 2364 2358 2361 2366 2363 2362 2359 2357 2365 2353 2359 2354 2358 2348 2352 2348 2343 2350 2345 2349 2348 2345 2341 2349 2351 2346 2346 2343 2351 2347 2348 2347 2353 2355 2350 2351 2355 2355 2354 2352 2353 2347 2338 2354 2344 2342 2349 2341 2350 2346 2343 2356 2346 2355 2350 2357 2341 2352 2352 2353 2362 2360 2348 2353 2353 2354 2351 2345 2345 2340 2344 2352 2354 2340 2349 2345 2339 2326 2356 2350 2347 2360 2347 2354 2347 2364 2351 2361 2409
2413 2445 2406 2396 2412 2419 2403 2401 2391 2403 2393 2392 2385 2379 2384 2371 2386 2380 2379 2368 2371 2380 2375 2376 2379 2376 2370 2371 2375 2363 2360 2376 2370 2363 2361 2362 2350 2362 2360 2359 2361 2358 2358 2362 2362 2362 2362 2354 2350 2348 2358 2349 2351 2354 2348 2349 2352 2343 2350 2350 2347 2353 2353 2355 2350 2348 2352 2358 2347 2348 2352 2352 2343 2345 2355 2355 2351 2344 2342 2346 2365 2339 2354 2355 2348 2342 2354 2345 2356 2354 2352 2361 2353 2356 2358 2364 2351 2354 2364 2357 2346 2353 2356 2354 2349 2344 2352 2365 2348 2352 2348 2338 2347 2368 2341 2357 2376 2374 2347 2399
2447 2439 2419 2412 2415 2425 2397 2409 2393 2408 2403 2398 2378 2388 2386 2382 2377 2372 2380 2374 2375 2377 2385 2372 2379 2381 2368 2378 2374 2377 2370 2375 2366 2369 2358 2376 2374 2354 2360 2367 2364 2364 2357 2360 2355 2360 2358 2357 2358 2353 2357 2350 2346 2353 2348 2356 2346 2358 2357 2365 2357 2361 2362 2350 2357 2354 2350 2358 2358 2350 2345 2358 2345 2351 2346 2356 2350 2346 2353 2350 2357 2352 2343 2348 2357 2357 2358 2357 2354 2351 2353 2358 2356 2351 2363 2349 2360 2361 2363 2367 2364 2356 2358 2343 2347 2358 2352 2358 2364 2363 2360 2362 2352 2370 2376 2372 2384 2371 2376 2358
2443 2456 2424 2405 2423 2404 2383 2392 2396 2399 2386 2394 2383 2369 2379 2373 2378 2375 2381 2379 2371 2377 2369 2376 2358 2368 2355 2369 2373 2368 2363 2369 2377 2376 2359 2364 2358 2359 2354 2362 2361 2362 2361 2361 2352 2351 2355 2363 2351 2360 2361 2344 2351 2352 2346 2349 2353 2353 2361 2349 2355 2362 2359 2352 2353 2348 2344 2348 2352 2354 2360 2346 2340 2357 2355 2358 2351 2354 2349 2351 2361 2354 2345 2354 2348 2355 2352 2354 2359 2360 2358 2366 2349 2349 2354 2359 2359 2364 2356 2352 2355 2374 2345 2351 2352 2365 2356 2352 2366 2345 2336 2346 2350 2365 2372 2360 2348 2355 2392 2427
2456 2441 2433 2412 2424 2410 2406 2410 2411 2410 2406 2400 2395 2388 2407 2384 2387 2387 2393 2377 2387 2372 2386 2375 2384 2363 2378 2367 2381 2372 2372 2382 2378 2370 2364 2364 2367 2374 2360 2369 2369 2359 2361 2358 2365 2355 2363 2368 2348 2352 2364 2347 2360 2351 2352 2352 2357 2359 2356 2360 2356 2359 2362 2358 2358 2352 2345 2351 2361 2351 2352 2360 2344 2360 2352 2352 2358 2350 2364 2354 2351 2353 2345 2353 2356 2347 2346 2352 2361 2354 2356 2353 2353 2354 2360 2358 2355 2346 2349 2354 2342 2361 2353 2356 2354 2360 2358 2354 2348 2347 2367 2353 2349 2350 2347 2354 2363 2363 2344 2381
2453 2491 2458 2465 2445 2420 2442 2416 2419 2408 2422 2388 2382 2394 2393 2397 2389 2371 2387 2388 2387 2381 2388 2375 2384 2394 2378 2367 2380 2370 2375 2376 2369 2373 2366 2359 2353 2349 2362 2361 2366 2360 2355 2355 2358 2364 2360 2363 2361 2361 2364 2355 2364 2367 2362 2360 2356 2353 2361 2352 2353 2355 2355 2359 2360 2354 2358 2363 2352 2356 2358 2352 2355 2384 2351 2356 2357 2361 2353 2346 2340 2351 2344 2362 2349 2349 2351 2358 2357 2348 2361 2353 2350 2355 2361 2348 2342 2361 2354 2358 2356 2362 2354 2354 2359 2337 2332 2351 2357 2349 2349 2344 2366 2334 2371 2353 2370 2364 2400 2385
0 2987 3042 2833 2498 2454 2650 2634 2729 2634 2590 2689 2535 2541 2565 2545 2473 2491 2427 2422 2450 2474 2488 2459 2424 2441 2450 2448 2462 2446 2474 2427 2372 2371 2372 2370 2363 2369 2360 2367 2361 2360 2360 2360 2360 2353 2357 2355 2353 2345 2362 2353 2355 2355 2362 2362 2359 2364 2365 2357 2354 2358 2356 2359 2357 2350 2354 2359 2363 2364 2346 2350 2357 2348 2361 2356 2350 2361 2347 2353 2355 2352 2360 2364 2360 2349 2356 2349 2341 2363 2354 2351 2355 2362 2353 2373 2372 2356 2361 2358 2360 2347 2353 2364 2366 2354 2365 2361 2367 2360 2382 2355 2353 2376 2367 2382 2363 2435 2348 2401
2751 2676 2504 2474 2477 2481 2472 2445 2451 2430 2438 2405 2403 2406 2397 2424 2394 2409 2382 2382 2421 2401 2416 2579 2384 2404 2441 2460 2476 2456 2479 2462 2372 2380 2366 2364 2362 2364 2351 2366 2367 2364 2355 2366 2359 2361 2357 2354 2361 2348 2355 2348 2353 2351 2353 2348 2351 2352 2352 2347 2357 2353 2361 2353 2350 2344 2346 2351 2350 2349 2350 2353 2352 2347 2358 2356 2348 2360 2364 2351 2351 2363 2360 2353 2355 2350 2351 2351 2350 2353 2352 2349 2357 2361 2362 2357 2371 2367 2365 2365 2370 2361 2343 2368 2372 2363 2351 2346 2372 2353 2370 2367 2354 2360 2366 2387 2399 2422 2405 2402
3169 2973 2763 2822 2916 2912 2636 2557 2666 2562 2506 2605 2542 2528 2482 2497 2508 2472 2482 2484 2475 2461 2431 2461 2445 2419 2434 2419 2412 2437 2418 2415 2386 2366 2377 2365 2363 2356 2360 2353 2353 2363 2356 2359 2358 2355 2355 2354 2353 2351 2347 2357 2359 2360 2355 2356 2353 2353 2351 2347 2351 2350 2354 2352 2354 2356 2357 2355 2343 2352 2358 2353 2351 2350 2339 2345 2348 2352 2353 2352 2349 2344 2340 2351 2361 2352 2360 2357 2351 2346 2348 2355 2351 2368 2359 2380 2389 2373 2395 2382 2393 2379 2377 2367 2395 2378 2367 2387 2390 2400 2362 2404 2425 2437 2399 2412 2398 2391 2435 2475
2560 2579 2567 2589 2579 2582 2546 2566 2547 2530 2533 2542 2522 2513 2480 2498 2524 2494 2496 2510 2512 2524 2509 2498 2517 2491 2492 2504 2451 2479 2496 2490 2451 2411 2367 2356 2360 2366 2358 2366 2362 2367 2350 2361 2357 2365 2354 2353 2358 2347 2351 2350 2347 2356 2359 2357 2361 2358 2354 2351 2353 2357 2353 2354 2347 2352 2346 2349 2353 2354 2356 2362 2347 2346 2351 2346 2347 2351 2352 2353 2351 2356 2350 2350 2350 2359 2354 2349 2359 2350 2359 2361 2358 2363 2372 2370 2385 2365 2369 2377 2380 2380 2380 2379 2356 2385 2379 2378 2385 2420 2409 2383 2452 2365 2404 2420 2415 2443 2472 2370
2583 2575 2598 2602 2541 2539 2541 2518 2512 2508 2504 2522 2496 2491 2495 2506 2490 2495 2487 2495 2479 2484 2486 2474 2490 2473 2468 2468 2471 2470 2465 2470 2454 2425 2366 2366 2362 2353 2362 2365 2355 2361 2365 2351 2356 2348 2356 2356 2355 2347 2350 2349 2350 2357 2354 2357 2347 2347 2356 2355 2354 2348 2358 2360 2347 2356 2351 2354 2353 2353 2356 2351 2353 2350 2352 2354 2352 2356 2348 2354 2349 2350 2349 2363 2346 2338 2350 2346 2361 2363 2361 2366 2413 2416 2426 2460 2446 2448 2419 2471 2431 2444 2432 2424 2422 2410 2450 2442 2439 2497 2444 2432 2411 2476 2503 2488 2477 2415 0 0
2660 2676 2571 2599 2565 2559 2511 2556 2502 2517 2494 2555 2499 2523 2476 2493 2494 2508 2491 2497 2501 2488 2482 2476 2477 2488 2472 2490 2492 2468 2464 2489 2472 2412 2362 2364 2372 2369 2364 2361 2359 2354 2367 2364 2362 2359 2365 2351 2357 2353 2351 2347 2356 2361 2350 2344 2360 2351 2356 2362 2355 2353 2361 2358 2346 2351 2352 2354 2353 2350 2344 2351 2352 2350 2344 2348 2356 2350 2351 2354 2352 2351 2357 2352 2353 2354 2353 2363 2343 2361 2361 2369 2429 2436 2444 2449 2464 2444 2452 2449 2461 2432 2455 2454 2447 2458 2443 2466 2482 2487 2476 2492 2501 2440 2511 2524 2478 2480 2515 0
2635 2607 2557 2534 2522 2515 2515 2534 2516 2485 2515 2499 2512 2490 2494 2518 2480 2480 2474 2497 2483 2468 2475 2479 2460 2479 2458 2476 2468 2456 2448 2453 2463 2397 2363 2360 2363 2367 2358 2364 2362 2363 2366 2360 2354 2356 2360 2348 2346 2352 2359 2353 2345 2354 2353 2353 2354 2353 2353 2353 2359 2356 2360 2354 2350 2352 2346 2355 2355 2360 2351 2355 2354 2355 2351 2348 2351 2350 2355 2352 2352 2361 2352 2356 2361 2349 2353 2362 2340 2347 2343 2394 2439 2450 2452 2451 2447 2445 2465 2452 2452 2452 2455 2446 2447 2453 2449 2437 2455 2471 2459 2448 2456 2441 2434 2439 2461 2555 2501 2437
2851 2774 2712 2724 2587 2533 2530 2579 2519 2510 2502 2552 2518 2496 2487 2477 2500 2492 2497 2500 2519 2487 2491 2477 2491 2461 2480 2475 2483 2454 2467 2480 2462 2415 2370 2373 2356 2356 2360 2361 2373 2357 2365 2364 2357 2356 2350 2363 2351 2355 2352 2350 2355 2351 2355 2350 2344 2348 2368 2353 2344 2357 2362 2359 2352 2356 2349 2347 2340 2348 2355 2356 2357 2352 2350 2354 2333 2357 2358 2345 2348 2363 2352 2362 2355 2348 2348 2350 2345 2357 2350 2382 2405 2408 2437 2467 2434 2442 2440 2445 2446 2450 2452 2446 2426 2457 2469 2480 2444 2537 2479 2465 2466 2455 2430 2507 2519 2595 2598 2784
0 3230 3077 2893 2712 2633 2721 2690 2637 2556 2591 2624 2562 2527 2518 2541 2577 2523 2530 2532 2581 2511 2507 2522 2510 2489 2510 2491 2479 2497 2478 2481 2457 2393 2377 2372 2364 2367 2367 2365 2368 2359 2358 2360 2352 2348 2357 2355 2356 2354 2357 2361 2356 2359 2346 2343 2352 2350 2350 2361 2352 2351 2361 2353 2348 2352 2350 2350 2354 2353 2354 2346 2355 2349 2362 2348 2351 2347 2353 2350 2356 2357 2351 2356 2360 2346 2365 2351 2359 2354 2359 2371 2429 2450 2444 2451 2441 2452 2439 2446 2460 2462 2451 2435 2448 2460 2436 2423 2466 2494 2445 2500 2457 2476 2452 2503 2441 2526 2443 2580
0 0 0 0 2692 2765 2785 2758 2633 2573 2706 2583 2608 2533 2554 2478 2585 2545 2526 2546 2518 2530 2505 2495 2525 2505 2496 2490 2472 2491 2483 2470 2436 2394 2370 2368 2356 2360 2357 2349 2362 2357 2359 2367 2353 2370 2354 2351 2359 2354 2352 2355 2357 2340 2354 2353 2351 2355 2349 2348 2351 2352 2354 2361 2363 2347 2352 2350 2348 2347 2348 2345 2339 2360 2352 2349 2342 2346 2341 2354 2345 2353 2351 2355 2346 2347 2351 2356 2349 2342 2361 2395 2442 2448 2465 2457 2442 2448 2444 2459 2444 2462 2449 2453 2438 2450 2451 2449 2444 2453 2443 2457 2443 2455 2466 2446 2498 2416 2524 2524
2675 2651 2605 2636 2561 2570 2543 2582 2542 2529 2530 2547 2505 2509 2493 2493 2531 2510 2500 2506 2503 2490 2504 2488 2484 2479 2495 2490 2474 2472 2473 2465 2446 2385 2371 2360 2359 2369 2362 2352 2361 2357 2356 2361 2355 2349 2358 2356 2359 2355 2358 2363 2354 2350 2345 2361 2350 2358 2360 2353 2354 2352 2360 2358 2364 2351 2346 2353 2346 2352 2353 2352 2348 2347 2348 2349 2343 2350 2347 2350 2346 2351 2357 2354 2347 2354 2354 2355 2362 2354 2365 2364 2465 2458 2485 2447 2421 2480 2443 2491 2478 2488 2485 2448 2442 2439 2467 2486 2480 2526 2476 2450 2474 2546 2512 2518 2678 2519 2521 0
2578 2625 2558 2633 2529 2529 2553 2561 2494 2520 2503 2527 2510 2489 2499 2491 2500 2485 2494 2495 2488 2491 2488 2487 2488 2476 2478 2471 2477 2471 2467 2476 2461 2403 2357 2368 2362 2357 2350 2348 2360 2358 2367 2354 2362 2359 2350 2354 2357 2358 2362 2359 2358 2349 2348 2360 2358 2347 2358 2355 2348 2358 2361 2362 2347 2351 2348 2347 2352 2350 2351 2349 2347 2349 2353 2351 2343 2352 2349 2349 2349 2361 2360 2354 2348 2350 2354 2353 2360 2346 2360 2375 2417 2431 2428 2458 2417 2459 2442 2487 2490 2446 2441 2462 2476 2444 2525 2505 2461 2503 2504 2517 2551 2520 2580 2460 0 0 0 0
2580 2592 2593 2551 2563 2521 2554 2545 2523 2508 2519 2528 2515 2504 2497 2516 2495 2477 2500 2489 2506 2504 2485 2475 2478 2465 2486 2481 2466 2460 2468 2478 2461 2404 2370 2369 2368 2369 2366 2360 2364 2359 2357 2362 2357 2359 2355 2351 2362 2370 2348 2358 2356 2355 2350 2358 2357 2357 2355 2354 2356 2358 2363 2350 2362 2363 2349 2349 2351 2348 2350 2347 2347 2342 2350 2354 2354 2352 2349 2349 2349 2339 2351 2358 2356 2351 2349 2350 2356 2355 2363 2391 2427 2452 2441 2437 2461 2460 2448 2438 2464 2457 2446 2443 2440 2461 2473 2439 2451 2459 2473 2440 2437 2506 2483 2484 2485 2608 2596 0
2582 2563 2602 2637 2518 2519 2537 2547 2528 2519 2497 2544 2500 2501 2504 2494 2495 2502 2488 2491 2487 2479 2484 2483 2486 2483 2483 2477 2476 2468 2474 2473 2477 2391 2370 2367 2367 2369 2373 2366 2361 2360 2368 2362 2355 2361 2362 2360 2357 2356 2359 2350 2356 2358 2361 2356 2348 2361 2354 2349 2352 2353 2362 2361 2351 2353 2344 2356 2355 2360 2343 2350 2356 2346 2345 2349 2352 2352 2344 2347 2359 2354 2352 2363 2346 2360 2357 2355 2353 2355 2353 2391 2438 2456 2441 2438 2443 2454 2467 2453 2451 2456 2448 2457 2453 2462 2448 2472 2453 2433 2474 2445 2438 2470 2464 2449 2458 2465 2467 2486
2870 2725 2784 2840 2590 2573 2569 2651 2553 2567 2543 2619 2533 2516 2498 2477 2506 2508 2506 2508 2473 2486 2497 2488 2418 2480 2481 2480 2486 2474 2472 2476 2461 2391 2369 2362 2367 2359 2371 2358 2366 2366 2355 2351 2358 2361 2361 2359 2356 2356 2344 2358 2367 2362 2359 2351 2351 2345 2358 2359 2360 2357 2356 2357 2348 2354 2354 2361 2355 2363 2352 2353 2349 2358 2347 2352 2344 2351 2304 2201 2344 2346 2282 2362 2378 2369 2362 2359 2357 2355 2359 2396 2426 2432 2442 2462 2399 2455 2452 2446 2441 2489 2459 2454 2453 2461 2464 2472 2455 2484 2445 2480 2492 2450 2491 2476 2550 2551 2592 2582
0 2995 2888 0 2707 2646 2710 2922 2651 2631 2689 2747 2682 2585 2574 2550 2651 2580 2548 2538 2545 2537 2534 2514 2512 2509 2503 2501 2527 2505 2487 2481 2451 2390 2376 2372 2364 2363 2371 2358 2366 2360 2362 2361 2358 2358 2359 2358 2364 2361 2359 2356 2363 2358 2365 2356 2359 2354 2358 2352 2360 2365 2361 2354 2360 2357 2358 2359 2359 2353 2354 2349 2357 2348 2356 2354 2352 2345 2300 2114 2151 2363 2208 2149 2515 2444 2370 2359 2364 2358 2362 2408 2440 2469 2458 2450 2453 2444 2456 2458 2446 2440 2452 2450 2459 2440 2446 2452 2500 2474 2503 2440 2442 2523 2461 2457 2488 2549 2610 2572
2965 2846 2904 3025 2771 2682 2644 2697 2687 2538 2577 2632 2551 2589 2618 2569 2560 2548 2579 2549 2542 2523 2507 2525 2501 2513 2515 2503 2492 2464 2486 2457 2451 2389 2377 2371 2367 2363 2364 2367 2366 2368 2367 2365 2361 2358 2359 2352 2359 2352 2355 2345 2358 2353 2355 2353 2353 2356 2360 2363 2356 2362 2358 2347 2357 2352 2353 2353 2363 2344 2348 2348 2348 2348 2350 2346 2339 2349 2335 2258 2190 2237 2298 2125 2396 2557 2480 2396 2361 2356 2367 2380 2431 2451 2464 2472 2458 2456 2457 2475 2446 2455 2472 2465 2476 2479 2464 2475 2466 2474 2465 2490 2496 2486 2522 2464 2494 2572 2558 2510
2605 2579 2555 2632 2552 2533 2550 2540 2522 2517 2511 2572 2516 2513 2513 2494 2511 2509 2499 2522 2499 2503 2491 2471 2513 2497 2501 2483 2504 2482 2477 2470 2440 2400 2382 2361 2370 2372 2369 2365 2363 2369 2356 2360 2366 2363 2364 2356 2363 2368 2354 2359 2362 2352 2347 2362 2360 2362 2359 2354 2357 2358 2363 2362 2355 2352 2355 2352 2354 2356 2354 2352 2345 2348 2357 2353 2348 2354 2346 2345 2300 2306 2336 2334 2336 2432 2468 2430 2369 2362 2366 2375 2435 2453 2499 2448 2438 2468 2452 2474 2500 2462 2523 2480 2454 2466 2469 2515 2508 2510 2527 2528 2548 2512 2556 2459 2590 0 0 0
2636 2583 2538 2625 2557 2517 2532 2568 2525 2508 2523 2518 2506 2517 2511 2523 2518 2489 2508 2516 2495 2489 2490 2473 2513 2495 2480 2482 2498 2478 2479 2478 2472 2398 2368 2371 2369 2373 2372 2368 2368 2362 2374 2361 2368 2366 2366 2367 2358 2362 2355 2355 2360 2354 2363 2357 2368 2360 2357 2356 2364 2359 2363 2353 2357 2355 2362 2357 2349 2352 2355 2351 2347 2350 2353 2355 2361 2338 2349 2345 2348 2358 2351 2355 2365 2368 2366 2359 2360 2350 2369 2372 2427 2455 2464 2460 2472 2479 2468 2475 2469 2498 2486 2470 2448 2488 2510 2505 2558 2458 2546 2570 2488 2453 2596 2525 0 0 0 0
2771 2572 2626 2595 2530 2534 2569 2569 2521 2511 2530 2511 2491 2493 2517 2526 2514 2499 2494 2533 2500 2530 2486 2485 2479 2475 2475 2457 2495 2475 2484 2472 2445 2395 2374 2379 2369 2374 2375 2369 2370 2365 2365 2366 2374 2364 2362 2364 2359 2356 2361 2352 2357 2358 2349 2361 2353 2354 2350 2352 2358 2364 2349 2349 2358 2364 2359 2354 2352 2352 2344 2354 2355 2347 2360 2355 2358 2349 2344 2350 2364 2357 2353 2360 2359 2351 2358 2366 2361 2369 2354 2401 2448 2439 2439 2457 2457 2446 2440 2459 2453 2462 2452 2459 2480 2452 2455 2462 2454 2472 2481 2486 2445 2471 2461 2505 2468 2614 2608 2581
2578 2603 2546 2614 2539 2524 2547 2558 2510 2513 2541 2565 2515 2511 2492 2538 2504 2498 2488 2517 2510 2498 2499 2490 2483 2479 2469 2491 2483 2480 2485 2456 2455 2398 2376 2377 2373 2376 2375 2359 2368 2368 2365 2373 2373 2364 2362 2373 2359 2359 2367 2361 2367 2359 2359 2358 2362 2363 2361 2359 2361 2363 2358 2366 2360 2364 2353 2353 2360 2356 2344 2361 2356 2356 2358 2358 2356 2351 2358 2351 2359 2357 2356 2356 2356 2361 2365 2358 2350 2354 2360 2391 2461 2455 2450 2447 2460 2446 2444 2455 2463 2438 2454 2461 2455 2455 2458 2460 2467 2442 2467 2442 2467 2447 2475 2486 2503 2476 2467 2667
2876 2792 2676 2681 2599 2580 2622 2679 2586 2533 2531 2582 2511 2513 2552 2544 2534 2521 2517 2499 2504 2507 2490 2502 2478 2485 2489 2482 2501 2487 2485 2481 2459 2399 2379 2371 2367 2371 2368 2368 2372 2370 2367 2370 2363 2356 2367 2361 2372 2360 2361 2356 2362 2359 2357 2365 2357 2358 2352 2359 2362 2369 2355 2350 2360 2364 2370 2354 2367 2361 2355 2367 2363 2353 2359 2350 2355 2360 2345 2358 2358 2357 2356 2351 2356 2354 2359 2353 2363 2371 2370 2398 2446 2438 2445 2459 2442 2448 2450 2430 2421 2495 2452 2465 2474 2461 2457 2469 2490 2463 2484 2469 2586 2497 2536 2555 2521 2586 2646 2579
0 3182 3006 3037 2849 2814 2738 2923 2784 2638 2682 2709 2618 2612 2600 2681 2610 2533 2591 2571 2552 2526 2572 2552 2550 2554 2516 2507 2488 2489 2511 2496 2471 2386 2391 2370 2362 2369 2368 2361 2368 2367 2369 2366 2367 2370 2373 2355 2363 2374 2355 2368 2369 2355 2362 2356 2360 2358 2352 2360 2355 2361 2364 2361 2363 2359 2359 2358 2361 2357 2354 2361 2356 2359 2359 2363 2357 2354 2356 2363 2356 2356 2355 2357 2367 2358 2370 2365 2355 2368 2378 2408 2442 2458 2453 2452 2466 2453 2458 2454 2448 2445 2459 2458 2443 2463 2468 2447 2441 2452 2439 2484 2402 2498 2465 2450 2551 2530 2551 2514
0 0 2889 3018 2832 2757 2813 2677 2598 2649 2736 2693 2710 2638 2671 2668 2581 2644 2516 2616 2664 2612 2534 2525 2516 2472 2516 2494 2491 2538 2464 2480 2464 2399 2363 2369 2377 2370 2362 2370 2364 2379 2362 2367 2364 2364 2363 2359 2366 2367 2361 2363 2366 2363 2364 2357 2360 2352 2367 2355 2359 2367 2354 2357 2360 2354 2360 2350 2359 2363 2364 2360 2359 2363 2361 2361 2368 2361 2369 2359 2352 2358 2353 2354 2357 2352 2361 2361 2359 2352 2366 2394 2461 2453 2468 2449 2456 2445 2465 2462 2471 2470 2448 2457 2488 2452 2458 2463 2505 2457 2465 2472 2471 2487 2451 2539 2527 2602 2634 2547
2713 2638 2556 2558 2457 2452 2636 2513 2529 2486 2465 2487 2482 2465 2418 2444 2414 2431 2421 2404 2393 2407 2429 2443 2392 2401 2409 2412 2430 2423 2411 2381 2386 2383 2379 2366 2374 2373 2385 2373 2368 2382 2366 2371 2364 2370 2359 2367 2371 2358 2366 2359 2364 2366 2364 2353 2363 2357 2365 2357 2366 2364 2364 2358 2365 2376 2371 2349 2362 2353 2355 2360 2361 2356 2349 2356 2361 2353 2357 2354 2367 2366 2358 2360 2358 2359 2352 2358 2359 2366 2373 2392 2401 2487 2508 2524 2512 2485 2470 2466 2486 2520 2524 2520 2457 2473 2508 2503 2545 2497 2518 2507 2513 2665 2584 0 0 0 0 0
2767 2492 2514 2533 2470 2444 2600 2654 2589 2520 2534 2578 2647 2669 2667 2650 2623 2712 2440 2477 2456 2519 2606 2654 2594 2487 2689 2589 2544 2527 2577 2427 2391 2372 2374 2373 2373 2378 2376 2375 2371 2373 2373 2372 2362 2377 2367 2365 2362 2364 2363 2364 2353 2359 2364 2372 2360 2366 2355 2356 2361 2363 2362 2357 2360 2363 2356 2357 2362 2355 2352 2361 2364 2364 2349 2355 2358 2359 2348 2361 2354 2355 2356 2350 2359 2354 2360 2368 2368 2362 2344 2373 2415 2385 2463 2422 2445 2457 2463 2489 2445 2428 2481 2499 2465 2379 2437 2513 2503 2539 2643 2584 0 0 0 0 0 0 0 0
2488 2475 2445 2444 2459 2466 2440 2428 2426 2415 2423 2422 2439 2444 2427 2401 2418 2397 2415 2405 2410 2403 2414 2403 2420 2402 2421 2409 2396 2403 2439 2402 2391 2375 2387 2371 2366 2374 2372 2370 2370 2369 2365 2368 2372 2371 2372 2368 2359 2368 2359 2359 2365 2365 2374 2370 2363 2363 2359 2369 2364 2367 2356 2350 2359 2360 2353 2363 2364 2356 2364 2357 2360 2362 2364 2359 2361 2353 2356 2351 2355 2366 2351 2354 2368 2357 2363 2354 2359 2356 2372 2362 2370 2378 2355 2367 2363 2363 2382 2384 2384 2381 2385 2396 2361 2387 2403 2390 2373 2343 2415 2343 2370 2397 2457 2451 2565 2383 2470 0
2464 2463 2451 2441 2428 2448 2426 2424 2422 2403 2420 2425 2406 2421 2417 2407 2420 2404 2427 2425 2420 2412 2400 2395 2400 2394 2401 2417 2396 2397 2387 2385 2397 2377 2377 2372 2377 2379 2386 2376 2369 2378 2378 2373 2370 2366 2374 2372 2367 2368 2367 2374 2369 2361 2363 2366 2371 2376 2363 2367 2360 2363 2360 2361 2369 2357 2367 2365 2357 2359 2358 2364 2350 2351 2373 2359 2362 2346 2369 2362 2369 2361 2360 2358 2361 2358 2362 2356 2369 2354 2372 2364 2362 2368 2382 2391 2381 2349 2392 2373 2412 2406 2390 2373 2384 2382 2400 2410 2377 2435 2362 2384 2468 2623 2471 0 2507 0 2436 2558
2529 2429 2436 2404 2418 2416 2423 2407 2432 2403 2416 2397 2410 2398 2409 2409 2393 2395 2388 2409 2396 2396 2396 2383 2398 2386 2394 2390 2402 2378 2390 2393 2380 2377 2377 2370 2387 2374 2374 2378 2366 2381 2361 2375 2378 2366 2351 2368 2369 2368 2368 2362 2374 2370 2363 2366 2367 2366 2369 2357 2356 2363 2365 2370 2370 2366 2357 2375 2359 2367 2351 2364 2360 2353 2367 2360 2356 2365 2363 2369 2363 2373 2361 2369 2369 2361 2361 2369 2367 2360 2371 2373 2376 2372 2381 2372 2375 2373 2360 2393 2393 2416 2389 2388 2377 2386 2374 2369 2377 2364 2380 2371 2421 2417 2345 2430 2447 2471 2497 2539
2499 2447 2455 2431 2441 2427 2442 2411 2416 2419 2415 2397 2399 2395 2412 2399 2412 2391 2390 2397 2399 2387 2389 2387 2391 2384 2383 2399 2396 2388 2389 2379 2377 2384 2370 2388 2381 2383 2383 2370 2370 2367 2369 2377 2381 2371 2376 2374 2366 2358 2366 2367 2364 2361 2371 2370 2364 2365 2360 2376 2362 2371 2361 2360 2360 2360 2355 2365 2374 2360 2354 2365 2363 2361 2351 2360 2364 2359 2369 2359 2368 2357 2367 2364 2365 2358 2365 2363 2364 2358 2354 2376 2361 2370 2363 2379 2373 2367 2372 2352 2368 2373 2386 2372 2367 2365 2373 2370 2364 2390 2393 2392 2377 2415 2397 2420 2415 2444 2398 2647
2505 2434 2426 2420 2445 2454 2436 2427 2407 2419 2402 2411 2411 2391 2403 2405 2410 2391 2389 2393 2411 2394 2387 2392 2390 2380 2390 2386 2387 2394 2376 2372 2407 2390 2376 2389 2371 2395 2384 2383 2377 2370 2371 2372 2371 2360 2368 2363 2366 2367 2368 2368 2360 2368 2371 2355 2367 2365 2365 2355 2352 2368 2371 2368 2366 2356 2358 2363 2358 2358 2353 2362 2364 2363 2357 2361 2365 2365 2368 2360 2360 2381 2363 2358 2364 2363 2361 2362 2362 2368 2370 2369 2351 2358 2350 2369 2368 2373 2377 2366 2368 2368 2364 2374 2368 2363 2356 2359 2388 2368 2370 2377 2385 2412 2376 2386 2401 2404 2507 2544
2469 2481 2435 2434 2457 2456 2418 2430 2423 2405 2428 2421 2406 2409 2394 2393 2400 2401 2399 2390 2403 2396 2392 2399 2400 2387 2409 2386 2384 2379 2378 2398 2387 2394 2369 2378 2377 2371 2381 2368 2379 2371 2363 2368 2370 2374 2380 2373 2370 2361 2369 2367 2361 2372 2360 2366 2356 2365 2366 2356 2360 2366 2362 2359 2366 2359 2359 2370 2359 2351 2356 2359 2361 2358 2365 2372 2360 2365 2366 2374 2365 2357 2362 2363 2367 2363 2364 2362 2360 2375 2368 2362 2360 2377 2354 2372 2363 2365 2379 2360 2377 2358 2376 2364 2376 2374 2376 2374 2371 2356 2373 2360 2369 2404 2417 2405 2443 2469 2533 2536
2503 2494 2439 2433 2455 2434 2444 2430 2404 2417 2395 2414 2403 2398 2410 2392 2393 2392 2399 2397 2382 2397 2381 2386 2403 2393 2396 2395 2388 2381 2377 2392 2378 2387 2382 2375 2357 2380 2371 2370 2387 2379 2365 2362 2366 2361 2353 2356 2364 2357 2365 2348 2357 2375 2365 2367 2364 2364 2352 2359 2353 2349 2372 2367 2358 2356 2345 2362 2369 2360 2363 2350 2368 2368 2370 2359 2366 2359 2352 2363 2360 2361 2361 2363 2358 2370 2359 2369 2358 2367 2356 2379 2367 2349 2378 2366 2358 2367 2366 2371 2387 2345 2359 2355 2374 2355 2370 2366 2362 2371 2370 2368 2393 2361 2371 2408 2391 2414 2541 2643
2547 2475 2438 2464 2473 2480 2431 2432 2419 2420 2415 2439 2396 2410 2397 2388 2404 2401 2396 2389 2401 2391 2398 2389 2384 2387 2390 2391 2384 2396 2377 2394 2382 2388 2388 2369 2379 2381 2379 2374 2373 2380 2373 2369 2370 2367 2365 2375 2361 2382 2373 2364 2370 2368 2371 2367 2361 2360 2364 2348 2378 2359 2358 2359 2377 2358 2369 2362 2352 2372 2369 2367 2360 2362 2357 2367 2353 2359 2367 2358 2357 2361 2370 2381 2355 2372 2370 2365 2361 2362 2383 2357 2365 2358 2366 2358 2373 2374 2366 2368 2348 2370 2372 2353 2367 2354 2368 2376 2369 2363 2372 2390 2377 2359 2397 2446 2395 2527 2442 2498
2543 2505 2454 2466 2473 2493 2429 2424 2416 2414 2423 2444 2402 2388 2409 2393 2403 2405 2403 2392 2395 2400 2392 2393 2395 2411 2391 2393 2385 2391 2394 2373 2392 2390 2379 2386 2379 2383 2376 2380 2366 2374 2386 2360 2374 2370 2365 2384 2360 2373 2372 2373 2372 2358 2365 2359 2368 2375 2364 2361 2364 2364 2356 2366 2360 2369 2363 2364 2367 2361 2363 2361 2366 2369 2354 2351 2364 2348 2369 2355 2361 2364 2364 2367 2363 2364 2361 2370 2334 2346 2401 2360 2356 2357 2363 2369 2357 2378 2380 2382 2370 2349 2359 2362 2368 2369 2362 2347 2379 2354 2343 2392 2407 2367 2390 2454 2460 2455 2441 2453
2549 2504 2476 2460 2512 2490 2455 2425 2432 2409 2425 2452 2431 2409 2406 2400 2401 2405 2412 2389 2390 2395 2390 2389 2385 2397 2393 2390 2378 2384 2380 2388 2369 2391 2368 2383 2377 2385 2361 2372 2368 2359 2363 2371 2361 2373 2366 2367 2365 2358 2372 2373 2353 2362 2365 2362 2365 2366 2358 2342 2360 2355 2364 2353 2363 2354 2361 2365 2356 2353 2343 2358 2357 2367 2354 2357 2364 2362 2356 2360 2359 2354 2346 2351 2357 2364 2367 2358 2374 2359 2367 2352 2366 2362 2375 2354 2358 2364 2346 2349 2343 2360 2372 2373 2371 2382 2380 2371 2365 2357 2389 2379 2379 2416 2373 2434 2375 2433 2633 2658
2623 2544 2531 2492 2524 2504 2474 2437 2446 2449 2439 2426 2431 2420 2406 2409 2412 2432 2431 2405 2397 2410 2400 2386 2399 2387 2410 2403 2391 2406 2400 2406 2412 2390 2385 2398 2382 2394 2376 2367 2403 2383 2357 2370 2374 2390 2389 2380 2379 2363 2379 2365 2361 2365 2383 2364 2359 2370 2371 2367 2366 2384 2374 2372 2362 2364 2361 2375 2364 2369 2358 2356 2360 2371 2370 2356 2372 2370 2364 2368 2374 2360 2371 2378 2365 2363 2392 2359 2373 2367 2379 2377 2370 2371 2364 2352 2377 2375 2370 2387 2363 2346 2370 2386 2378 2393 2378 2362 2386 2399 2420 2355 2388 2397 2397 2585 2559 2519 2596 2648
2714 2593 2498 2465 2508 2436 2491 2474 2433 2442 2430 2448 2412 2426 2400 2419 2414 2398 2394 2433 2407 2391 2391 2406 2403 2382 2395 2377 2388 2403 2383 2405 2393 2391 2390 2413 2379 2365 2381 2378 2396 2381 2373 2379 2366 2380 2364 2373 2371 2365 2365 2382 2372 2366 2344 2361 2368 2363 2365 2368 2364 2377 2406 2377 2364 2371 2361 2361 2375 2370 2382 2366 2360 2347 2373 2373 2360 2355 2363 2365 2377 2367 2363 2364 2375 2385 2375 2376 2372 2370 2402 2327 2354 2365 2378 2353 2374 2381 2384 2362 2373 2366 2387 2369 2385 2354 2369 2377 2356 2373 2413 2404 2432 2454 2483 2454 2531 2563 2635 0
2706 2692 2546 2497 2608 2653 2526 2496 2475 2407 2448 2443 2458 2436 2441 2436 2410 2408 2422 2421 2438 2396 2397 2406 2400 2413 2409 2388 2408 2372 2411 2385 2384 2412 2393 2397 2350 2360 2380 2363 2374 2375 2379 2367 2353 2374 2396 2363 2350 2372 2364 2369 2365 2367 2375 2378 2353 2371 2370 2357 2351 2370 2373 2360 2360 2376 2376 2350 2356 2373 2363 2361 2370 2353 2366 2367 2368 2365 2358 2358 2382 2393 2354 2365 2362 2363 2381 2372 2385 2387 2372 2397 2372 2392 2374 2386 2370 2364 2370 2376 2371 2362 2379 2374 2352 2373 2372 2390 2405 2406 2425 2405 2402 2437 2494 2459 2512 2781 0 0
2693 2605 2605 2542 2601 2723 2515 2536 2457 2458 2427 2422 2438 2419 2463 2460 2411 2392 2424 2443 2386 2413 2392 2387 2394 2420 2423 2402 2392 2381 2410 2387 2406 2419 2399 2373 2371 2377 2380 2390 2381 2392 2373 2366 2370 2381 2371 2382 2359 2360 2371 2380 2368 2377 2354 2361 2368 2368 2373 2367 2356 2373 2377 2388 2364 2368 2363 2364 2363 2376 2381 2363 2359 2353 2367 2358 2367 2376 2364 2367 2378 2390 2362 2383 2360 2389 2376 2363 2356 2373 2404 2394 2381 2377 2348 2378 2366 2373 2358 2370 2374 2379 2369 2401 2387 2373 2380 2392 2414 2362 2400 2497 2416 2546 2432 2501 2544 2484 0 0
2866 2651 2677 2546 2604 2744 2546 2440 2467 2455 2416 2462 2480 2412 2438 2423 2396 2416 2410 2416 2432 2403 2402 2385 2383 2374 2369 2391 2401 2395 2416 2389 2382 2386 2383 2391 2403 2347 2359 2385 2348 2353 2364 2384 2400 2337 2365 2380 2369 2359 2363 2359 2364 2347 2348 2351 2344 2367 2363 2357 2377 2355 2351 2358 2343 2362 2358 2343 2349 2353 2359 2346 2363 2375 2372 2370 2335 2351 2357 2340 2352 2347 2374 2368 2337 2355 2335 2362 2340 2375 2364 2396 2369 2320 2346 2366 2360 2365 2370 2402 2358 2378 2350 2344 2366 2335 2369 2388 2352 2344 2409 2381 2420 2397 2460 0 0 0 0 0
3219 3039 2784 2728 2711 2865 2642 2578 2514 2542 2499 2438 2420 2486 2427 2426 2434 2407 2401 2415 2413 2400 2378 2402 2395 2411 2379 2391 2418 2407 2383 2404 2397 2397 2406 2345 2387 2355 2388 2377 2390 2374 2400 2370 2384 2365 2379 2368 2384 2360 2361 2356 2366 2392 2364 2364 2370 2384 2385 2366 2377 2356 2372 2366 2375 2338 2382 2370 2354 2365 2373 2370 2362 2363 2344 2356 2351 2351 2397 2373 2352 2370 2399 2354 2365 2389 2380 2365 2371 2374 2373 2361 2325 2382 2383 2389 2388 2362 2397 2375 2361 2358 2384 2408 2365 2333 2403 2380 2403 2454 2438 2471 2394 2553 2554 0 0 0 0 0
3415 0 3024 2726 2775 0 0 2806 2698 2495 2512 2465 2487 2437 2440 2514 2474 2444 2448 2408 2422 2466 2433 2402 2446 2395 2420 2397 2427 2381 2377 2427 2403 2411 2374 2383 2390 2392 2389 2372 2382 2379 2366 2394 2395 2379 2368 2352 2381 2374 2356 2357 2380 2361 2351 2371 2364 2362 2377 2356 2349 2397 2362 2375 2358 2359 2368 2362 2373 2386 2347 2390 2392 2319 2343 2368 2371 2359 2385 2395 2333 2358 2341 2386 2356 2378 2382 2357 2405 2369 2432 2365 2383 2389 2392 2384 2377 2337 2368 2366 2372 2381 2400 2404 2435 2392 2392 2402 2386 2392 2503 2523 2492 2540 2556 0 0 0 0 0
3938 3533 3132 3027 0 0 0 0 0 2713 2539 2459 2460 2454 2522 2467 2469 2488 2416 2406 2424 2442 2433 2431 2400 2376 2415 2391 2376 2361 2413 2416 2478 2487 2378 2418 2387 2340 2430 2326 2429 2396 2376 2382 2362 2336 2389 2392 2349 2364 2369 2379 2364 2385 2342 2383 2351 2398 2371 2366 2367 2378 2358 2358 2348 2397 2361 2379 2332 2322 2326 2362 2361 2330 2353 2353 2357 2348 2399 2363 2351 2406 2386 2377 2395 2371 2380 2408 2355 2387 2350 2412 2373 2380 2371 2426 2404 2361 2368 2365 2411 2362 2394 2434 2415 2427 2397 2364 2412 2431 2490 2565 2644 2732 0 0 0 0 0 0
4080 3873 3301 0 0 0 0 0 0 0 2711 2674 2623 2692 2674 2569 2518 2611 2484 2454 2487 2486 2507 2412 2452 2468 2419 2415 2452 2370 2393 2425 2455 2477 2400 2356 2401 2395 2421 2440 2361 2390 2385 2386 2427 2366 2438 2331 2380 2359 2342 2365 2329 2379 2354 2385 2362 2346 2368 2370 2397 2411 2365 2396 2384 2359 2355 2356 2333 2359 2300 2342 2367 2340 2392 2340 2343 2373 2330 2385 2326 2394 2330 2323 2372 2363 2344 2360 2348 2392 2373 2379 2374 2412 2346 2384 2362 2396 2352 2437 2380 2404 2386 2416 2421 2348 2457 2372 2424 2599 2635 2631 2602 0 0 0 0 0 0 0
4080 3999 0 0 0 0 0 0 0 0 0 2894 0 0 0 0 2687 2566 2587 2443 2485 2478 2554 2492 2447 2388 2479 2484 2478 2438 2400 2438 2473 0 2413 2496 2445 2383 2431 2414 2365 2411 2373 2386 2384 2436 2374 2387 2380 2358 2423 2395 2344 2342 2299 2355 2365 2367 2340 2376 2365 2371 2424 2364 2328 2370 2369 2363 2365 2354 2357 2343 2302 2312 2392 2325 2350 2414 2391 2349 2383 2364 2373 2340 2359 2377 2360 2359 2328 2390 2387 2431 2377 2371 2374 2382 2429 2381 2431 2420 2426 2473 2474 2345 2477 2437 2413 2446 2508 0 2624 2545 2651 0 0 0 0 0 0 0
