502 242 377 316 242 376 307 251 414 209 425 374 285 253 474 478 419 464 434 478 559 475 722 416 618 505 685 682 615 755 621 723 724 613 679 792 732 846 655 798 780 851 728 681 870 828 833 909 874 859 860 876 854 876 909 870 916 906 922 986 977 994 1030 1019 1095 1135 0 1073 1338 0 1379 0 0 0 0 0 0 0 0 0 0 0 0 1140 0 2105 2232 2157 2185 2204 2222 0 0 0 0 0 0 0 0 0 0 0 0 2226 2171 0 2102 2198 0 0 0 0 0 0 0 0 0 0 0 0
119 233 243 358 182 276 196 262 244 309 0 0 77 0 0 0 0 0 0 0 0 0 0 0 0 0 0 0 0 0 0 2206 2171 2200 0 0 0 0 0 0 0 2109 0 0 2186 2244 2258 2266 2265 2261 2281 2300 2316 2280 2228 2266 2283 2292 2261 2265 2289 2287 2275 2259 2258 2280 2249 2293 2291 2319 2314 2260 2312 2325 2270 2320 2329 2312 2321 2317 2317 2313 2377 2309 2321 2289 2303 2312 2322 2324 2329 2325 2351 2335 2314 2334 2340 2361 2289 2337 2305 2277 2288 2319 2369 2334 2339 2345 2315 2358 2387 0 0 0 0 0 0 0 0 0
0 0 0 0 0 0 0 2450 2478 2426 2399 2524 2536 2465 2420 2372 2383 2432 2433 2378 2420 2422 2444 2410 2370 2398 2395 2387 2393 2365 2387 2380 2334 2387 2320 2359 2351 2496 2590 2544 2475 2387 2580 2487 2335 2355 2362 2357 2335 2347 2349 2317 2328 2351 2363 2355 2320 2341 2336 2360 2346 2334 2329 2374 2351 2351 2405 2327 2326 2338 2352 2338 2337 2353 2344 2351 2338 2367 2338 2376 2363 2319 2356 2309 2342 2331 2332 2325 2336 2360 2340 2364 2426 2378 2396 2315 2389 2400 0 2409 2363 2365 2327 2370 2376 2335 2318 2361 2365 2371 2341 2391 2428 0 0 0 0 0 0 0
0 2733 2621 2635 2625 2553 2498 2444 2419 2437 2428 2433 2394 2404 2389 2379 2416 2375 2427 2389 2412 2374 2352 2382 2352 2341 2355 2353 2352 2358 2375 2354 2347 2313 2325 2339 2353 2396 2455 2447 2402 2426 2457 2407 2368 2326 2345 2307 2300 2339 2282 2315 2329 2314 2294 2304 2282 2303 2303 2294 2302 2324 2306 2332 2300 2281 2306 2344 2297 2311 2319 2305 2321 2334 2331 2325 2288 2342 2301 2331 2281 2325 2336 2347 2310 2329 2326 2283 2351 2341 2327 2350 2359 2311 2338 2327 2369 2199 2454 2257 2332 2318 2338 2336 2291 2348 2330 2318 2308 2317 2309 2342 2310 2313 0 0 0 0 0 0
2809 2778 2512 2541 2597 2479 2484 2453 2418 2421 2448 2424 2442 2380 2409 2432 2386 2403 2402 2417 2412 2376 2403 2387 2403 2397 2431 2384 2362 2383 2370 2327 2336 2368 2357 2331 2400 2484 2492 2459 2405 2441 2470 2402 2354 2348 2334 2329 2354 2329 2330 2337 2351 2341 2363 2336 2317 2359 2307 2327 2336 2302 2347 2342 2343 2326 2328 2344 2316 2337 2340 2321 2363 2340 2356 2336 2351 2363 2325 2312 2347 2351 2335 2358 2321 2386 2321 2333 2317 2321 2340 2346 2326 2319 2324 2350 2343 2338 2367 2355 2353 2304 2324 2336 2363 2354 2339 2330 2321 2356 2321 2397 2410 2413 2424 0 0 0 0 0
2688 2686 2611 2481 2479 2440 2448 2431 2407 2416 2423 2397 2431 2405 2419 2424 2395 2393 2395 2418 2406 2387 2414 2400 2402 2388 2420 2369 2377 2343 2351 2367 2339 2355 2365 2366 2344 2389 2477 2467 2409 2433 2498 2418 2365 2355 2351 2356 2325 2339 2355 2340 2328 2327 2340 2328 2367 2321 2323 2352 2325 2331 2331 2324 2320 2329 2345 2343 2327 2343 2344 2353 2338 2311 2352 2335 2375 2326 2349 2341 2345 2333 2349 2348 2367 2336 2338 2338 2364 2345 2365 2352 2339 2332 2332 2325 2345 2339 2345 2365 2343 2357 2341 2326 2322 2378 2338 2309 2358 2342 2381 2377 2364 2343 2402 2339 0 0 0 0
2635 2525 2457 2465 2399 2365 2390 2438 2372 2377 2391 2412 2366 2385 2365 2367 2380 2372 2361 2346 2352 2357 2358 2346 2370 2344 2337 2349 2346 2365 2367 2339 2331 2321 2340 2338 2319 2330 2356 2406 2434 2364 2394 2333 2318 2312 2337 2348 2330 2343 2342 2307 2311 2349 2330 2304 2321 2329 2318 2301 2332 2316 2326 2319 2331 2344 2331 2337 2337 2319 2328 2342 2308 2306 2311 2306 2326 2322 2336 2337 2322 2311 2332 2318 2339 2335 2295 2325 2314 2310 2326 2298 2316 2331 2318 2306 2326 2317 2341 2342 2304 2311 2296 2319 2295 2317 2311 2324 2309 2319 2275 2357 2360 2329 2311 2329 2410 2336 0 0
2618 2629 2511 2433 2501 2445 2436 2390 2419 2410 2403 2418 2395 2411 2381 2389 2400 2374 2408 2378 2375 2379 2372 2370 2377 2380 2371 2363 2360 2349 2373 2356 2368 2347 2344 2350 2317 2351 2342 2353 2343 2351 2322 2343 2358 2333 2327 2341 2330 2354 2338 2344 2352 2332 2360 2338 2343 2325 2337 2338 2348 2333 2332 2333 2330 2303 2330 2337 2334 2337 2329 2339 2324 2328 2334 2341 2339 2323 2329 2327 2332 2347 2318 2341 2328 2325 2320 2330 2339 2319 2322 2318 2360 2350 2330 2325 2346 2322 2330 2334 2355 2332 2334 2351 2355 2343 2314 2312 2343 2347 2309 2305 2347 2429 2364 2369 2398 2386 0 0
2468 2579 2468 2457 2427 2422 2423 2396 2392 2404 2413 2409 2400 2414 2421 2394 2381 2404 2381 2383 2395 2384 2368 2379 2377 2390 2374 2377 2375 2383 2348 2362 2354 2367 2370 2366 2370 2359 2349 2358 2339 2364 2373 2353 2347 2337 2350 2347 2338 2343 2342 2341 2342 2360 2352 2349 2362 2352 2355 2345 2352 2331 2343 2349 2345 2345 2328 2355 2350 2336 2347 2342 2336 2354 2335 2349 2342 2364 2340 2343 2340 2335 2349 2345 2363 2352 2346 2350 2340 2363 2336 2348 2346 2346 2347 2347 2347 2358 2379 2356 2336 2345 2333 2341 2357 2333 2330 2353 2365 2388 2349 2363 2351 2368 2370 2330 2379 2437 2547 2588
2481 2435 2429 2433 2409 2387 2389 2415 2409 2390 2408 2382 2376 2380 2385 2375 2392 2366 2371 2381 2360 2371 2375 2376 2357 2385 2380 2375 2360 2358 2373 2356 2357 2346 2348 2369 2347 2351 2351 2357 2338 2338 2346 2338 2338 2332 2331 2346 2326 2347 2350 2330 2335 2348 2348 2333 2342 2335 2342 2351 2347 2325 2343 2335 2335 2332 2336 2347 2335 2341 2322 2338 2333 2338 2334 2330 2351 2334 2343 2339 2350 2335 2334 2357 2347 2317 2334 2330 2310 2306 2318 2343 2349 2341 2322 2322 2341 2326 2319 2322 2328 2344 2340 2321 2305 2336 2313 2327 2332 2332 2354 2338 2320 2362 2446 2366 2323 2376 2380 2373
2440 2508 2454 2465 2435 2401 2411 2401 2395 2398 2389 2385 2397 2395 2391 2401 2399 2368 2377 2371 2393 2389 2372 2373 2381 2386 2387 2382 2358 2370 2383 2356 2354 2363 2362 2359 2352 2358 2350 2344 2344 2351 2362 2351 2351 2338 2354 2337 2346 2350 2342 2357 2335 2362 2340 2331 2350 2351 2343 2350 2334 2341 2348 2338 2347 2331 2336 2343 2349 2332 2341 2339 2353 2341 2339 2329 2346 2345 2329 2344 2338 2332 2330 2342 2343 2334 2353 2328 2342 2350 2329 2329 2343 2337 2324 2335 2335 2342 2343 2351 2346 2343 2349 2348 2345 2353 2334 2338 2346 2351 2343 2360 2348 2363 2400 2390 2341 2355 2358 2434
2459 2454 2429 2409 2414 2414 2417 2398 2386 2390 2401 2389 2392 2394 2388 2381 2395 2376 2374 2376 2382 2386 2379 2370 2387 2389 2381 2381 2368 2377 2372 2356 2370 2366 2361 2362 2348 2363 2355 2347 2353 2354 2345 2346 2354 2363 2355 2348 2355 2355 2359 2346 2337 2351 2354 2374 2349 2348 2347 2343 2353 2345 2344 2343 2348 2347 2335 2356 2340 2330 2338 2360 2342 2343 2341 2343 2356 2356 2346 2363 2335 2348 2349 2349 2346 2356 2349 2345 2362 2350 2343 2337 2340 2326 2352 2345 2343 2350 2352 2339 2338 2342 2337 2346 2356 2343 2348 2350 2320 2329 2337 2347 2376 2386 2407 2434 2388 2397 2344 2454
2447 2446 2401 2422 2376 2415 2379 2393 2406 2408 2414 2387 2395 2386 2379 2375 2368 2366 2374 2393 2377 2377 2378 2373 2380 2367 2373 2362 2351 2368 2361 2363 2346 2361 2359 2362 2369 2357 2347 2361 2350 2351 2350 2346 2352 2347 2347 2341 2352 2363 2348 2347 2352 2351 2350 2363 2346 2351 2346 2337 2347 2333 2338 2339 2352 2343 2343 2338 2346 2337 2347 2345 2334 2333 2355 2346 2355 2346 2345 2345 2318 2332 2330 2353 2357 2342 2333 2322 2341 2351 2341 2335 2345 2337 2341 2348 2343 2339 2340 2333 2342 2334 2335 2348 2341 2343 2343 2342 2334 2339 2341 2323 2320 2376 2349 2349 2335 2356 2400 2516
2432 2468 2394 2409 2419 2412 2397 2387 2400 2389 2404 2385 2403 2385 2385 2386 2368 2375 2367 2373 2370 2352 2367 2372 2372 2373 2380 2378 2370 2370 2374 2366 2357 2368 2350 2349 2350 2345 2345 2347 2344 2352 2340 2351 2337 2345 2351 2341 2343 2351 2347 2349 2342 2342 2345 2341 2351 2335 2359 2338 2343 2341 2334 2339 2346 2336 2328 2334 2333 2332 2335 2343 2327 2338 2337 2340 2336 2327 2345 2334 2345 2339 2349 2350 2334 2339 2362 2337 2338 2346 2336 2347 2346 2343 2343 2349 2343 2349 2340 2342 2347 2348 2329 2353 2330 2339 2336 2344 2351 2344 2328 2339 2343 2368 2343 2383 2353 2349 2363 2338
2470 2472 2408 2415 2412 2402 2405 2390 2396 2400 2395 2393 2384 2378 2384 2391 2370 2373 2383 2366 2358 2386 2362 2353 2361 2379 2383 2388 2380 2372 2370 2358 2364 2363 2359 2361 2357 2353 2357 2355 2346 2350 2345 2359 2353 2351 2346 2353 2335 2354 2360 2348 2343 2344 2346 2356 2339 2354 2339 2348 2345 2345 2344 2346 2340 2348 2343 2337 2337 2345 2339 2332 2330 2347 2333 2347 2340 2346 2344 2346 2348 2345 2346 2348 2357 2335 2354 2338 2346 2337 2336 2336 2345 2334 2341 2346 2346 2351 2338 2332 2355 2332 2320 2340 2344 2325 2335 2348 2336 2358 2344 2334 2361 2367 2366 2370 2378 2359 2407 2383
2416 2411 2413 2399 2399 2387 2379 2387 2387 2399 2391 2398 2365 2365 2383 2378 2371 2377 2386 2373 2371 2375 2365 2382 2377 2368 2364 2359 2364 2358 2354 2354 2361 2349 2370 2357 2350 2353 2355 2346 2338 2327 2351 2344 2345 2353 2341 2345 2349 2351 2354 2345 2361 2338 2351 2345 2349 2352 2348 2354 2343 2347 2341 2335 2346 2335 2346 2352 2345 2347 2345 2337 2341 2348 2347 2329 2341 2336 2339 2334 2333 2341 2344 2351 2342 2346 2343 2348 2343 2341 2344 2347 2339 2343 2335 2328 2333 2340 2325 2332 2336 2331 2334 2334 2334 2334 2334 2343 2343 2328 2319 2341 2339 2314 2358 2325 2354 2378 2364 2345
2456 2421 2414 2406 2396 2387 2388 2398 2391 2375 2372 2378 2377 2378 2380 2382 2363 2371 2376 2374 2378 2365 2372 2370 2363 2375 2367 2376 2356 2362 2346 2353 2364 2354 2361 2343 2348 2356 2345 2353 2350 2353 2351 2350 2346 2344 2346 2348 2345 2343 2351 2351 2348 2345 2341 2350 2335 2345 2345 2339 2345 2342 2343 2329 2352 2342 2340 2352 2355 2348 2336 2343 2342 2336 2338 2339 2335 2346 2345 2344 2342 2340 2340 2343 2355 2332 2334 2340 2339 2335 2341 2352 2332 2338 2337 2343 2333 2329 2339 2339 2342 2339 2328 2322 2338 2327 2343 2342 2336 2331 2345 2345 2364 2326 2341 2337 2361 2359 2362 2404
2425 2413 2441 2442 2432 2418 2391 2391 2392 2388 2389 2399 2387 2387 2384 2379 2379 2386 2379 2387 2376 2378 2379 2371 2375 2371 2374 2371 2374 2362 2357 2361 2362 2364 2357 2359 2358 2355 2351 2358 2356 2357 2347 2351 2351 2362 2351 2337 2347 2353 2359 2338 2352 2343 2351 2350 2351 2356 2347 2351 2342 2351 2342 2339 2343 2346 2349 2344 2343 2344 2342 2341 2340 2351 2339 2342 2337 2344 2348 2346 2345 2348 2347 2364 2345 2346 2336 2360 2350 2358 2338 2346 2345 2348 2345 2351 2355 2344 2349 2340 2353 2359 2346 2350 2356 2342 2358 2359 2356 2338 2334 2342 2370 2374 2377 2385 2367 2425 2379 2417
2428 2455 2453 2427 2402 2390 2397 2380 2400 2393 2390 2396 2386 2394 2391 2377 2380 2377 2377 2384 2368 2370 2369 2390 2370 2385 2368 2373 2377 2367 2380 2372 2354 2360 2365 2349 2367 2357 2356 2354 2360 2351 2350 2352 2354 2352 2353 2359 2348 2347 2346 2354 2345 2350 2351 2343 2343 2349 2359 2336 2346 2335 2334 2350 2347 2354 2347 2345 2338 2337 2344 2350 2353 2352 2334 2341 2342 2344 2338 2342 2345 2336 2345 2347 2345 2352 2352 2345 2345 2343 2346 2341 2348 2351 2351 2354 2355 2342 2352 2337 2337 2347 2348 2348 2339 2334 2353 2360 2324 2348 2347 2347 2355 2346 2358 2357 2340 2373 2405 2316
2456 2411 2445 2411 2409 2400 2370 2380 2382 2386 2379 2392 2367 2366 2379 2387 2371 2372 2369 2373 2373 2365 2370 2359 2367 2372 2357 2363 2356 2365 2360 2373 2357 2356 2358 2356 2362 2353 2344 2349 2353 2356 2347 2348 2360 2345 2330 2350 2348 2337 2341 2351 2339 2354 2345 2348 2345 2349 2344 2352 2345 2339 2328 2346 2330 2329 2335 2343 2337 2344 2332 2333 2328 2349 2339 2330 2329 2334 2343 2329 2348 2321 2337 2340 2326 2335 2329 2338 2339 2337 2328 2337 2342 2336 2340 2346 2335 2331 2335 2346 2326 2338 2330 2333 2338 2328 2347 2338 2319 2336 2345 2340 2349 2322 2345 2353 2340 2338 2334 2366
2396 2434 2411 2413 2406 2388 2389 2381 2369 2380 2383 2368 2379 2369 2374 2382 2368 2371 2373 2382 2371 2370 2372 2376 2376 2366 2373 2380 2371 2372 2364 2378 2374 2371 2362 2361 2364 2361 2362 2348 2358 2362 2348 2357 2355 2349 2356 2345 2348 2356 2355 2345 2339 2351 2347 2346 2349 2336 2345 2359 2340 2340 2340 2337 2341 2346 2341 2343 2336 2350 2344 2345 2348 2334 2337 2336 2343 2349 2339 2340 2341 2341 2339 2347 2347 2339 2347 2336 2334 2334 2345 2339 2336 2342 2335 2347 2337 2330 2344 2340 2338 2343 2343 2339 2337 2336 2350 2341 2328 2336 2328 2333 2343 2384 2334 2329 2352 2340 2355 2396
2426 2402 2405 2412 2391 2385 2401 2383 2370 2402 2387 2372 2374 2387 2381 2379 2378 2384 2368 2377 2376 2363 2366 2354 2381 2366 2375 2366 2356 2361 2365 2356 2357 2365 2363 2345 2359 2352 2357 2356 2362 2354 2351 2353 2349 2346 2356 2349 2350 2341 2347 2350 2350 2346 2344 2358 2348 2336 2336 2336 2339 2346 2338 2336 2334 2349 2340 2341 2343 2334 2341 2343 2345 2336 2334 2340 2337 2348 2342 2344 2346 2336 2345 2346 2356 2345 2332 2349 2339 2342 2332 2331 2346 2336 2335 2342 2330 2338 2335 2333 2346 2344 2332 2330 2343 2334 2340 2348 2347 2344 2351 2330 2324 2337 2341 2330 2388 2329 2365 2354
2409 2421 2402 2384 2384 2394 2381 2367 2375 2378 2382 2368 2371 2361 2366 2367 2373 2365 2368 2373 2360 2374 2372 2376 2361 2351 2376 2371 2372 2362 2369 2354 2363 2360 2352 2357 2353 2344 2353 2346 2356 2349 2342 2343 2343 2345 2350 2348 2340 2350 2348 2332 2344 2348 2336 2339 2337 2345 2334 2337 2338 2334 2340 2340 2343 2350 2338 2342 2333 2336 2339 2336 2341 2330 2331 2347 2341 2337 2343 2336 2335 2336 2332 2339 2333 2335 2334 2331 2339 2326 2329 2331 2337 2332 2347 2330 2326 2328 2340 2339 2334 2332 2333 2345 2323 2340 2340 2334 2332 2346 2332 2306 2310 2337 2328 2321 2339 2343 2364 2372
2447 2371 2379 2416 2408 2394 2387 2384 2390 2381 2377 2370 2391 2372 2374 2368 2372 2381 2370 2365 2358 2366 2372 2365 2358 2356 2372 2365 2365 2360 2360 2359 2362 2366 2361 2368 2362 2349 2361 2353 2352 2357 2346 2353 2344 2348 2353 2339 2347 2335 2347 2344 2341 2350 2348 2342 2340 2348 2343 2351 2342 2335 2345 2336 2340 2335 2341 2340 2346 2340 2336 2345 2333 2346 2335 2336 2339 2330 2336 2340 2330 2345 2346 2338 2341 2330 2332 2335 2332 2338 2350 2337 2344 2336 2338 2323 2341 2329 2335 2331 2344 2338 2347 2339 2338 2331 2331 2343 2358 2335 2328 2336 2355 2331 2345 2335 2323 2339 2331 2404
2409 2400 2418 2401 2385 2388 2397 2392 2379 2378 2383 2387 2383 2368 2371 2380 2366 2364 2372 2371 2368 2360 2377 2361 2369 2361 2374 2366 2364 2367 2363 2351 2365 2359 2357 2355 2357 2358 2350 2347 2355 2343 2349 2343 2346 2349 2342 2346 2345 2340 2354 2354 2346 2344 2341 2344 2341 2347 2356 2345 2337 2345 2343 2339 2339 2332 2336 2338 2335 2331 2339 2341 2340 2341 2342 2335 2348 2340 2338 2341 2335 2337 2335 2344 2340 2341 2334 2340 2335 2346 2339 2337 2338 2338 2339 2332 2335 2338 2336 2352 2332 2347 2345 2344 2338 2333 2334 2336 2338 2332 2341 2340 2336 2337 2347 2329 2380 2323 2388 2336
2392 2377 2408 2424 2399 2390 2373 2380 2369 2369 2381 2386 2372 2370 2367 2372 2359 2368 2366 2362 2360 2376 2358 2367 2367 2354 2360 2362 2358 2361 2355 2352 2360 2364 2358 2347 2347 2360 2344 2342 2351 2352 2350 2354 2349 2348 2341 2351 2341 2338 2352 2337 2340 2333 2347 2345 2345 2342 2340 2343 2347 2344 2338 2343 2340 2334 2335 2340 2340 2341 2334 2350 2334 2335 2343 2337 2337 2342 2340 2334 2331 2342 2336 2334 2337 2340 2332 2334 2341 2332 2340 2340 2338 2326 2336 2338 2338 2338 2324 2334 2330 2334 2330 2326 2324 2337 2330 2332 2345 2324 2334 2344 2318 2327 2329 2310 2324 2303 2318 2332
2437 2423 2428 2415 2403 2385 2385 2393 2385 2391 2398 2373 2390 2382 2392 2382 2372 2390 2382 2368 2377 2374 2371 2362 2374 2376 2372 2370 2370 2373 2359 2363 2361 2351 2361 2352 2360 2356 2356 2356 2350 2350 2360 2350 2361 2346 2355 2349 2346 2346 2345 2358 2350 2339 2347 2347 2342 2341 2340 2345 2352 2346 2335 2347 2344 2340 2349 2345 2338 2341 2344 2336 2347 2342 2338 2343 2334 2334 2352 2343 2339 2343 2345 2345 2351 2344 2351 2348 2340 2340 2338 2338 2337 2347 2338 2342 2346 2339 2340 2348 2339 2350 2335 2334 2343 2341 2341 2338 2346 2346 2347 2337 2344 2345 2339 2328 2345 2337 2383 2392
2424 2428 2414 2425 2403 2385 2395 2402 2398 2390 2391 2369 2382 2376 2365 2389 2373 2382 2375 2366 2403 2371 2377 2386 2371 2371 2385 2374 2384 2373 2368 2365 2365 2363 2350 2353 2359 2359 2351 2350 2365 2355 2350 2361 2362 2346 2356 2350 2348 2355 2344 2347 2353 2348 2349 2352 2342 2354 2341 2347 2340 2343 2346 2345 2344 2347 2351 2334 2342 2346 2342 2346 2344 2343 2339 2337 2346 2348 2348 2342 2340 2347 2337 2349 2348 2349 2343 2345 2332 2344 2345 2343 2340 2358 2336 2343 2342 2349 2336 2344 2327 2337 2346 2345 2340 2335 2339 2344 2323 2347 2341 2359 2308 2349 2337 2333 2375 2348 2352 2356
2410 2413 2419 2429 2386 2385 2387 2394 2377 2359 2375 2365 2368 2381 2364 2370 2381 2361 2368 2366 2380 2370 2371 2356 2369 2370 2352 2362 2355 2357 2349 2359 2363 2353 2348 2368 2350 2346 2351 2352 2351 2349 2352 2346 2343 2349 2349 2346 2344 2348 2341 2346 2350 2346 2343 2342 2337 2343 2346 2339 2343 2338 2341 2340 2339 2339 2343 2340 2334 2335 2343 2337 2336 2336 2341 2334 2340 2340 2338 2339 2338 2344 2335 2339 2345 2347 2335 2334 2343 2346 2331 2323 2338 2329 2338 2341 2332 2336 2335 2331 2338 2340 2334 2339 2334 2339 2328 2326 2336 2331 2324 2341 2327 2328 2342 2334 2323 2323 2339 2309
2407 2419 2413 2411 2385 2398 2400 2378 2389 2386 2381 2374 2390 2377 2377 2389 2382 2375 2381 2366 2371 2374 2376 2375 2375 2366 2375 2379 2355 2358 2366 2356 2356 2357 2364 2356 2369 2354 2356 2346 2348 2351 2356 2345 2345 2347 2350 2348 2350 2347 2349 2354 2344 2347 2351 2347 2345 2336 2344 2342 2349 2343 2344 2342 2339 2342 2343 2339 2347 2344 2333 2342 2345 2337 2342 2333 2343 2344 2330 2339 2339 2349 2340 2333 2339 2338 2344 2347 2343 2340 2339 2346 2336 2343 2343 2339 2344 2329 2332 2338 2342 2333 2333 2343 2329 2347 2355 2341 2337 2349 2326 2316 2330 2323 2346 2319 2328 2314 2395 2354
2445 2434 2417 2398 2400 2412 2391 2402 2379 2390 2398 2402 2384 2375 2395 2389 2379 2380 2388 2375 2366 2371 2372 2377 2386 2379 2373 2377 2362 2373 2370 2361 2362 2367 2355 2362 2355 2360 2351 2357 2349 2352 2351 2350 2360 2353 2348 2350 2346 2352 2349 2342 2345 2351 2348 2351 2350 2341 2344 2354 2348 2340 2346 2341 2348 2344 2338 2346 2338 2341 2339 2348 2347 2341 2353 2333 2346 2342 2349 2341 2343 2340 2342 2344 2343 2342 2345 2346 2347 2345 2346 2342 2342 2338 2332 2343 2346 2345 2341 2343 2352 2332 2350 2343 2331 2342 2342 2336 2354 2345 2346 2349 2368 2343 2358 2356 2353 2340 2374 2414
2438 2409 2402 2399 2377 2381 2400 2383 2395 2394 2377 2383 2369 2368 2368 2380 2372 2365 2385 2367 2373 2369 2374 2373 2366 2363 2372 2372 2365 2370 2366 2364 2362 2356 2345 2361 2359 2354 2354 2349 2356 2365 2348 2349 2348 2356 2353 2354 2347 2349 2350 2344 2347 2348 2348 2359 2344 2344 2346 2341 2345 2344 2338 2338 2341 2339 2351 2333 2346 2340 2338 2345 2341 2339 2329 2342 2343 2338 2338 2339 2334 2345 2343 2344 2338 2348 2345 2341 2335 2339 2342 2341 2341 2336 2338 2335 2342 2343 2346 2335 2342 2350 2339 2332 2338 2334 2345 2334 2359 2332 2349 2338 2352 2339 2341 2333 2311 2363 2390 2316
2417 2430 2421 2401 2397 2390 2396 2393 2386 2400 2368 2372 2395 2377 2380 2380 2373 2377 2371 2366 2376 2371 2376 2367 2366 2373 2370 2382 2364 2374 2363 2367 2354 2354 2353 2357 2358 2354 2346 2351 2351 2356 2356 2347 2348 2347 2352 2348 2345 2348 2348 2348 2347 2342 2343 2356 2342 2348 2345 2342 2340 2338 2340 2342 2337 2337 2344 2341 2339 2336 2341 2340 2336 2342 2342 2329 2343 2331 2341 2346 2339 2344 2338 2345 2349 2326 2348 2347 2342 2341 2345 2336 2347 2347 2339 2340 2347 2344 2338 2340 2336 2328 2349 2340 2332 2335 2348 2341 2335 2328 2331 2331 2325 2358 2355 2343 2308 2334 2342 2368
2430 2436 2432 2404 2395 2403 2398 2406 2399 2401 2396 2382 2382 2384 2382 2371 2380 2385 2380 2375 2377 2374 2382 2372 2372 2367 2374 2385 2369 2373 2362 2372 2378 2361 2362 2365 2355 2349 2346 2351 2362 2349 2352 2350 2351 2354 2352 2349 2352 2348 2344 2345 2356 2350 2345 2354 2348 2345 2352 2340 2351 2351 2347 2345 2348 2347 2345 2348 2350 2345 2343 2351 2351 2344 2336 2343 2343 2340 2344 2346 2345 2343 2355 2347 2345 2350 2350 2348 2351 2350 2344 2350 2340 2345 2344 2342 2359 2347 2346 2337 2346 2352 2341 2354 2342 2340 2339 2341 2334 2344 2346 2346 2349 2355 2348 2351 2350 2334 2366 2390
2408 2416 2399 2396 2392 2398 2401 2381 2385 2392 2384 2376 2387 2371 2372 2378 2372 2374 2378 2368 2364 2367 2358 2366 2375 2370 2370 2370 2358 2358 2355 2363 2359 2363 2364 2357 2344 2354 2345 2345 2348 2344 2347 2345 2351 2347 2350 2346 2346 2345 2344 2350 2354 2352 2352 2348 2337 2341 2354 2348 2343 2348 2336 2335 2334 2339 2341 2339 2341 2337 2343 2344 2342 2341 2344 2349 2339 2339 2345 2339 2332 2340 2360 2347 2345 2341 2346 2336 2344 2352 2347 2341 2325 2335 2338 2328 2336 2340 2345 2335 2345 2343 2335 2332 2343 2335 2334 2339 2335 2359 2339 2354 2326 2320 2333 2328 2328 2393 2348 2342
2431 2417 2424 2387 2391 2403 2410 2391 2392 2395 2376 2391 2388 2373 2374 2376 2382 2383 2373 2373 2366 2374 2373 2368 2366 2374 2382 2377 2369 2361 2364 2367 2362 2364 2355 2361 2348 2353 2354 2353 2352 2346 2347 2345 2348 2358 2357 2347 2355 2343 2349 2352 2348 2353 2336 2355 2352 2339 2341 2348 2339 2351 2335 2348 2346 2345 2342 2342 2350 2338 2338 2341 2340 2334 2346 2340 2339 2348 2334 2349 2331 2342 2345 2336 2339 2341 2350 2342 2346 2343 2348 2343 2339 2343 2338 2344 2341 2355 2348 2350 2343 2338 2330 2339 2336 2341 2349 2346 2343 2333 2338 2351 2324 2360 2330 2339 2357 2363 2322 2389
2444 2417 2420 2406 2413 2407 2408 2398 2404 2411 2413 2380 2376 2381 2384 2382 2376 2387 2376 2369 2377 2372 2376 2367 2375 2367 2365 2368 2371 2367 2364 2363 2367 2367 2355 2363 2354 2345 2359 2353 2362 2351 2353 2356 2349 2360 2348 2342 2346 2345 2350 2339 2349 2348 2359 2353 2356 2348 2351 2347 2338 2350 2353 2344 2345 2336 2346 2341 2350 2344 2345 2350 2340 2344 2346 2339 2348 2342 2347 2350 2337 2344 2339 2346 2350 2354 2349 2337 2337 2349 2342 2336 2346 2338 2349 2346 2354 2344 2343 2346 2349 2344 2336 2350 2343 2347 2339 2343 2341 2335 2349 2361 2350 2371 2356 2354 2380 2374 2390 2400
2400 2432 2398 2404 2395 2394 2403 2385 2391 2395 2388 2380 2380 2373 2367 2382 2382 2370 2378 2380 2369 2369 2370 2365 2366 2363 2379 2374 2373 2364 2357 2358 2361 2361 2369 2358 2349 2355 2349 2354 2344 2353 2352 2353 2352 2349 2350 2346 2342 2357 2354 2344 2347 2347 2345 2354 2348 2346 2345 2346 2341 2345 2347 2343 2337 2343 2342 2346 2343 2339 2341 2344 2337 2341 2337 2339 2345 2346 2346 2341 2350 2345 2337 2348 2345 2339 2344 2340 2343 2346 2343 2341 2332 2342 2347 2339 2340 2343 2349 2336 2346 2340 2327 2340 2339 2340 2343 2338 2333 2340 2338 2314 2306 2352 2335 2322 2320 2337 2330 2333
2421 2404 2410 2396 2380 2388 2395 2383 2388 2374 2392 2367 2385 2383 2381 2373 2373 2371 2379 2375 2379 2378 2375 2368 2363 2364 2368 2368 2365 2361 2362 2371 2367 2365 2358 2353 2354 2349 2351 2356 2358 2355 2351 2347 2353 2346 2346 2350 2343 2349 2351 2337 2349 2343 2352 2354 2352 2341 2341 2343 2353 2353 2339 2339 2341 2348 2342 2341 2342 2334 2344 2341 2345 2329 2344 2340 2346 2339 2341 2341 2342 2339 2342 2345 2342 2340 2343 2339 2347 2348 2340 2339 2347 2339 2338 2334 2342 2339 2336 2340 2330 2340 2333 2336 2337 2348 2332 2328 2331 2325 2322 2337 2356 2337 2327 2337 2324 2346 2325 2352
2432 2433 2397 2415 2402 2408 2399 2383 2382 2384 2387 2405 2392 2383 2390 2375 2383 2387 2376 2383 2382 2381 2379 2374 2375 2376 2369 2372 2364 2374 2359 2368 2366 2350 2358 2358 2355 2359 2362 2364 2354 2353 2356 2351 2350 2352 2357 2351 2346 2346 2350 2348 2355 2351 2352 2363 2348 2341 2354 2350 2351 2348 2349 2349 2342 2344 2344 2350 2343 2346 2343 2347 2339 2348 2353 2346 2343 2334 2343 2343 2344 2350 2346 2347 2352 2340 2352 2343 2347 2335 2341 2354 2343 2343 2346 2343 2354 2352 2344 2353 2342 2348 2336 2350 2343 2344 2332 2336 2334 2344 2345 2339 2351 2359 2377 2347 2369 2354 2359 2366
2431 2418 2396 2405 2389 2396 2396 2390 2393 2401 2394 2373 2378 2381 2377 2372 2379 2370 2368 2386 2383 2367 2369 2361 2368 2379 2374 2375 2366 2371 2371 2355 2363 2343 2354 2365 2354 2355 2349 2354 2353 2349 2348 2356 2355 2350 2349 2354 2341 2348 2347 2341 2344 2346 2352 2352 2345 2352 2340 2347 2345 2348 2345 2347 2342 2342 2347 2337 2343 2351 2333 2346 2334 2340 2341 2341 2345 2341 2343 2338 2347 2347 2345 2352 2333 2347 2350 2346 2345 2345 2341 2333 2343 2346 2340 2343 2337 2343 2348 2344 2334 2329 2343 2338 2339 2327 2324 2335 2329 2339 2329 2339 2343 2317 2324 2352 2339 2343 2333 2352
2411 2428 2422 2410 2395 2405 2393 2400 2383 2395 2372 2387 2374 2380 2381 2383 2381 2367 2374 2383 2370 2367 2370 2369 2368 2363 2381 2376 2365 2358 2358 2358 2366 2353 2363 2359 2364 2356 2354 2349 2349 2352 2345 2349 2346 2353 2341 2362 2349 2347 2344 2348 2344 2346 2341 2355 2360 2345 2358 2344 2345 2343 2339 2342 2340 2347 2340 2346 2347 2339 2344 2344 2346 2346 2342 2344 2341 2345 2353 2333 2344 2335 2346 2346 2353 2338 2340 2339 2339 2335 2345 2342 2348 2350 2338 2346 2353 2337 2350 2343 2330 2336 2341 2348 2347 2342 2351 2336 2334 2338 2340 2339 2328 2348 2320 2339 2335 2341 2338 2349
2411 2410 2409 2394 2395 2380 2399 2395 2386 2384 2390 2386 2371 2390 2379 2377 2386 2374 2381 2370 2374 2379 2376 2367 2371 2373 2379 2382 2369 2359 2361 2366 2362 2351 2364 2355 2355 2351 2356 2357 2357 2349 2354 2356 2351 2348 2352 2342 2349 2347 2346 2350 2350 2349 2353 2360 2351 2346 2355 2332 2347 2348 2339 2342 2340 2333 2345 2337 2349 2352 2339 2340 2345 2346 2350 2345 2345 2343 2339 2338 2337 2345 2343 2346 2347 2345 2344 2346 2342 2343 2343 2337 2340 2335 2343 2342 2342 2338 2348 2338 2340 2348 2341 2341 2342 2338 2332 2352 2351 2328 2347 2337 2348 2332 2355 2325 2332 2316 2354 2314
2436 2414 2404 2428 2405 2395 2405 2381 2397 2382 2388 2384 2376 2385 2382 2371 2381 2388 2376 2378 2382 2380 2380 2371 2371 2373 2362 2375 2370 2356 2368 2363 2363 2363 2361 2353 2355 2363 2353 2354 2353 2355 2354 2348 2349 2353 2353 2346 2348 2346 2353 2345 2348 2349 2354 2356 2355 2338 2345 2347 2353 2348 2337 2337 2350 2350 2338 2347 2346 2342 2340 2352 2343 2344 2350 2346 2351 2349 2347 2347 2347 2346 2346 2351 2341 2351 2336 2349 2339 2343 2350 2351 2348 2339 2346 2339 2339 2342 2338 2347 2346 2352 2339 2342 2343 2338 2335 2327 2338 2338 2336 2342 2330 2332 2338 2348 2342 2336 2346 2372
2410 2416 2376 2395 2410 2417 2387 2377 2383 2385 2387 2383 2371 2380 2367 2379 2371 2380 2364 2363 2377 2371 2364 2368 2373 2358 2367 2365 2373 2364 2364 2368 2361 2369 2357 2352 2353 2355 2350 2349 2354 2353 2349 2348 2359 2353 2354 2335 2344 2336 2346 2342 2337 2344 2354 2346 2356 2345 2335 2340 2351 2341 2345 2356 2343 2332 2345 2343 2342 2339 2337 2339 2351 2341 2346 2349 2340 2346 2341 2344 2340 2347 2342 2346 2362 2338 2347 2340 2339 2340 2345 2344 2338 2332 2347 2340 2351 2332 2332 2338 2340 2323 2347 2349 2333 2340 2346 2337 2334 2324 2341 2333 2335 2332 2331 2313 2330 2346 2335 2309
2442 2433 2411 2418 2407 2410 2399 2398 2384 2396 2385 2395 2382 2393 2380 2392 2377 2368 2373 2372 2381 2379 2372 2410 2376 2371 2384 2363 2372 2358 2366 2372 2360 2368 2354 2356 2358 2363 2361 2358 2357 2354 2346 2359 2360 2358 2358 2351 2348 2354 2359 2343 2342 2344 2347 2354 2350 2338 2339 2343 2340 2340 2347 2345 2342 2347 2345 2350 2341 2343 2345 2349 2345 2350 2347 2345 2346 2348 2339 2351 2351 2353 2344 2346 2347 2340 2341 2345 2345 2340 2342 2346 2350 2340 2340 2345 2352 2341 2345 2345 2338 2345 2337 2334 2354 2337 2340 2347 2332 2338 2327 2329 2355 2356 2333 2345 2331 2336 2349 2338
2420 2426 2398 2417 2413 2394 2406 2395 2403 2400 2388 2394 2398 2377 2379 2374 2374 2373 2375 2371 2377 2380 2377 2376 2366 2371 2371 2376 2370 2372 2358 2373 2366 2358 2367 2371 2363 2367 2363 2362 2359 2356 2352 2357 2354 2347 2360 2353 2340 2346 2348 2352 2354 2353 2347 2355 2357 2360 2348 2358 2353 2347 2342 2351 2343 2350 2348 2345 2348 2351 2348 2346 2339 2345 2346 2350 2359 2349 2342 2343 2354 2354 2345 2347 2346 2352 2364 2346 2341 2349 2342 2363 2357 2348 2349 2343 2355 2360 2360 2343 2347 2347 2340 2354 2352 2364 2357 2346 2344 2364 2352 2363 2359 2327 2344 2348 2360 2400 2356 2379
2450 2437 2408 2409 2408 2409 2401 2387 2385 2385 2395 2398 2387 2392 2381 2372 2379 2376 2394 2376 2379 2380 2370 2376 2376 2376 2369 2367 2358 2374 2359 2369 2375 2367 2353 2369 2362 2361 2351 2350 2360 2358 2363 2357 2362 2348 2352 2360 2348 2348 2354 2347 2354 2365 2361 2364 2354 2354 2355 2359 2355 2352 2358 2346 2353 2351 2351 2344 2343 2350 2342 2344 2348 2343 2350 2347 2345 2347 2336 2348 2349 2350 2352 2347 2343 2351 2345 2343 2346 2347 2348 2343 2340 2345 2342 2343 2351 2357 2355 2354 2342 2361 2360 2356 2334 2344 2349 2348 2317 2343 2359 2328 2344 2332 2321 2346 2354 2317 2300 2340
2484 2456 2485 2428 2429 2423 2414 2418 2409 2404 2406 2402 2385 2399 2385 2389 2374 2402 2380 2385 2386 2396 2406 2388 2383 2382 2373 2382 2365 2367 2379 2359 2363 2368 2370 2349 2359 2357 2355 2359 2368 2355 2354 2357 2366 2356 2350 2352 2347 2355 2347 2346 2353 2344 2357 2368 2359 2360 2345 2349 2351 2350 2344 2342 2347 2344 2343 2346 2339 2344 2350 2351 2340 2343 2341 2341 2338 2348 2341 2344 2342 2344 2350 2351 2349 2361 2355 2354 2358 2363 2366 2367 2382 2352 2375 2372 2373 2358 2390 2357 2376 2370 2375 2388 2383 2370 2362 2366 2370 2399 2385 2379 2366 2348 2370 2366 2331 2433 2505 0
2861 2937 2837 2738 2607 2662 2605 2537 2508 2525 2560 2447 2448 2518 2544 2531 2496 2555 2555 2473 2499 2507 2560 2487 2459 2383 2381 2381 2378 2368 2361 2368 2379 2366 2361 2365 2360 2359 2361 2363 2360 2352 2367 2349 2356 2362 2358 2355 2348 2350 2347 2354 2347 2352 2350 2355 2357 2355 2355 2355 2349 2349 2355 2355 2349 2345 2352 2344 2353 2345 2352 2353 2340 2360 2343 2357 2355 2347 2344 2349 2357 2333 2345 2345 2359 2360 2359 2349 2354 2356 2350 2349 2354 2356 2354 2358 2353 2355 2360 2365 2348 2356 2354 2388 2374 2369 2349 2372 2365 2371 2375 2362 2388 2334 2368 2390 2400 2361 2351 2448
2604 2604 2543 2416 2436 2459 2453 2429 2420 2421 2424 2415 2402 2400 2398 2409 2408 2382 2397 2377 2402 2389 2397 2388 2398 2375 2373 2383 2365 2365 2367 2357 2372 2365 2369 2361 2350 2345 2360 2353 2359 2362 2353 2354 2352 2353 2345 2348 2348 2353 2344 2348 2354 2350 2349 2351 2352 2348 2347 2347 2352 2352 2341 2344 2349 2349 2339 2356 2346 2349 2355 2344 2345 2341 2345 2340 2341 2339 2347 2335 2349 2345 2356 2345 2355 2356 2391 2380 2384 2374 2370 2400 2387 2397 2413 2394 2389 2373 2395 2383 2406 2416 2390 2393 2385 2403 2409 2423 2410 2402 2382 2409 2434 2422 2404 2412 2404 0 0 0
2905 0 2946 2666 2635 2635 2644 2572 2546 2537 2560 2561 2504 2514 2502 2500 2506 2467 2479 2458 2487 2488 2475 2487 2469 2462 2428 2380 2370 2367 2361 2373 2368 2364 2358 2367 2357 2364 2363 2359 2363 2351 2363 2356 2351 2359 2349 2355 2349 2352 2350 2344 2354 2353 2356 2353 2356 2347 2362 2352 2343 2354 2343 2356 2348 2350 2348 2350 2350 2338 2348 2347 2345 2358 2344 2348 2352 2343 2349 2342 2340 2348 2344 2352 2363 2412 2427 2432 2430 2446 2436 2433 2446 2432 2429 2439 2438 2440 2434 2434 2445 2433 2429 2430 2411 2446 2433 2436 2423 2448 2417 2450 2433 2441 2440 2438 2464 2503 2466 2492
2709 2774 2656 2552 2557 2599 2566 2527 2517 2548 2519 2508 2487 2514 2495 2506 2477 2510 2508 2484 2502 2504 2494 2476 2481 2485 2444 2393 2374 2370 2372 2376 2363 2363 2358 2366 2375 2363 2367 2367 2363 2368 2363 2361 2365 2360 2358 2358 2362 2358 2355 2357 2352 2346 2354 2352 2361 2352 2347 2354 2352 2353 2351 2341 2347 2352 2348 2361 2349 2353 2344 2354 2356 2353 2352 2359 2346 2343 2348 2354 2347 2344 2352 2362 2373 2427 2441 2444 2437 2445 2432 2448 2450 2439 2440 2450 2460 2456 2440 2448 2450 2444 2457 2435 2450 2447 2442 2453 2459 2471 2467 2455 2476 2462 2436 2446 2451 2436 2484 2496
2600 2602 2553 2515 2537 2524 2517 2515 2498 2538 2508 2524 2505 2493 2489 2494 2492 2492 2493 2478 2486 2490 2484 2491 2479 2475 2437 2389 2377 2364 2372 2369 2364 2370 2359 2368 2360 2355 2362 2357 2351 2358 2359 2355 2365 2364 2358 2355 2360 2353 2345 2350 2351 2352 2350 2360 2347 2348 2349 2358 2341 2347 2338 2350 2348 2343 2346 2350 2352 2348 2350 2345 2345 2346 2343 2343 2347 2346 2339 2350 2354 2355 2350 2363 2364 2416 2433 2436 2439 2434 2445 2465 2451 2446 2456 2439 2451 2433 2421 2445 2441 2455 2429 2422 2416 2429 2420 2416 2429 2433 2442 2427 2441 2468 2463 2451 2490 2480 2459 2433
2612 2751 2618 2569 2538 2546 2527 2518 2513 2525 2509 2517 2450 2481 2481 2474 2498 2499 2493 2459 2448 2474 2463 2468 2465 2450 2420 2369 2373 2366 2377 2365 2372 2369 2364 2353 2359 2361 2350 2355 2361 2353 2366 2357 2364 2363 2353 2356 2353 2361 2351 2362 2348 2356 2354 2355 2351 2356 2355 2354 2350 2354 2342 2350 2353 2342 2349 2346 2345 2343 2354 2348 2335 2352 2345 2349 2350 2349 2346 2344 2345 2352 2356 2348 2365 2415 2437 2441 2447 2421 2435 2438 2439 2432 2430 2424 2425 2441 2448 2434 2432 2436 2448 2444 2432 2428 2436 2450 2433 2437 2400 2422 2412 2442 2419 2441 2397 2451 2515 2446
2610 2636 2539 2554 2516 2553 2531 2497 2490 2523 2514 2520 2513 2511 2492 2488 2498 2505 2494 2487 2502 2493 2499 2479 2481 2471 2451 2396 2385 2380 2369 2376 2367 2371 2368 2372 2368 2364 2361 2362 2362 2363 2362 2358 2364 2359 2360 2359 2356 2352 2355 2368 2357 2350 2356 2353 2354 2355 2349 2345 2355 2354 2343 2348 2353 2357 2346 2358 2350 2346 2354 2354 2351 2352 2350 2356 2347 2346 2349 2350 2350 2355 2352 2358 2374 2433 2453 2457 2442 2452 2454 2449 2445 2452 2449 2434 2448 2442 2473 2449 2460 2461 2468 2452 2441 2446 2460 2460 2466 2485 2478 2476 2486 2498 2467 2458 2527 2515 2631 2620
2565 2643 2599 2546 2528 2585 2526 2522 2506 2528 2511 2524 2527 2526 2516 2496 2498 2474 2510 2492 2497 2505 2501 2492 2501 2473 2439 2370 2364 2364 2368 2362 2369 2374 2366 2367 2360 2364 2356 2357 2353 2354 2361 2356 2350 2361 2359 2351 2355 2346 2357 2360 2360 2351 2351 2353 2347 2352 2356 2351 2350 2353 2346 2343 2346 2350 2332 2347 2355 2350 2349 2344 2348 2354 2352 2338 2340 2345 2337 2343 2349 2354 2355 2341 2368 2427 2464 2456 2446 2432 2451 2451 2452 2451 2476 2443 2454 2447 2456 2451 2464 2443 2435 2468 2470 2448 2490 2474 2505 2489 2484 2504 2524 2500 2460 2517 2653 2645 0 0
2937 3077 2904 2818 2601 2711 2678 2593 2621 2724 2640 2638 2572 2523 2567 2548 2509 2530 2586 2515 2519 2496 2491 2512 2499 2496 2448 2368 2378 2371 2369 2363 2373 2360 2362 2359 2361 2364 2362 2346 2362 2366 2364 2356 2352 2351 2345 2356 2351 2352 2355 2354 2356 2357 2351 2352 2349 2359 2356 2348 2354 2352 2355 2344 2344 2354 2344 2352 2347 2350 2340 2348 2340 2348 2336 2346 2340 2344 2336 2344 2342 2348 2348 2349 2357 2400 2424 2432 2432 2411 2446 2464 2445 2436 2466 2442 2447 2458 2410 2486 2484 2448 2437 2443 2453 2475 2503 2433 2506 2480 2546 2455 2470 2486 2466 2536 2797 0 0 0
0 0 3063 2950 2761 2945 2727 2713 2659 2766 2580 2657 2600 2633 2607 2571 2572 2512 2622 2554 2521 2532 2553 2529 2400 2482 2440 2390 2384 2375 2369 2369 2375 2372 2368 2361 2361 2368 2363 2367 2361 2353 2352 2365 2362 2359 2358 2354 2356 2361 2360 2353 2353 2356 2352 2348 2358 2357 2346 2359 2350 2352 2349 2347 2352 2360 2340 2353 2350 2342 2343 2349 2344 2346 2359 2352 2333 2351 2351 2359 2354 2356 2345 2360 2352 2432 2443 2451 2456 2465 2460 2457 2433 2454 2445 2456 2454 2446 2468 2449 2456 2439 2474 2446 2450 2452 2462 2429 2477 2445 2492 2482 2468 2486 2476 2472 2514 2562 2587 2681
2738 2787 2637 2591 2571 2576 2538 2539 2551 2567 2523 2490 2520 2521 2499 2496 2481 2504 2498 2526 2498 2473 2513 2486 2484 2457 2439 2383 2375 2383 2372 2378 2375 2359 2368 2368 2361 2363 2363 2360 2365 2355 2357 2362 2362 2364 2348 2360 2358 2358 2345 2347 2361 2360 2351 2355 2358 2345 2345 2357 2341 2355 2346 2344 2341 2350 2349 2350 2347 2340 2343 2345 2345 2356 2349 2348 2343 2348 2351 2338 2346 2351 2355 2348 2367 2426 2440 2446 2443 2439 2441 2448 2442 2442 2448 2446 2440 2453 2448 2451 2443 2440 2465 2440 2451 2433 2439 2443 2464 2464 2445 2442 2466 2442 2489 2451 2472 2472 2523 2489
2692 2629 2561 2532 2529 2575 2513 2502 2511 2534 2497 2497 2501 2514 2502 2499 2484 2487 2487 2483 2485 2471 2488 2484 2479 2468 2423 2380 2374 2363 2377 2369 2373 2358 2368 2361 2363 2355 2361 2357 2360 2354 2360 2360 2356 2358 2350 2363 2348 2351 2344 2356 2360 2344 2349 2356 2349 2359 2345 2352 2344 2351 2352 2344 2340 2344 2346 2349 2342 2337 2340 2341 2344 2337 2345 2339 2343 2350 2340 2344 2347 2357 2351 2343 2363 2408 2434 2419 2425 2433 2428 2439 2445 2440 2419 2436 2426 2428 2428 2436 2426 2429 2432 2430 2412 2437 2451 2459 2416 2390 2405 2468 2455 2475 2424 2433 2428 2436 0 0
2703 2656 2562 2549 2549 2548 2533 2523 2536 2546 2530 2516 2514 2554 2507 2500 2498 2521 2493 2495 2518 2503 2478 2470 2473 2487 2448 2383 2382 2377 2367 2366 2372 2375 2371 2376 2369 2362 2360 2361 2368 2361 2359 2369 2357 2352 2354 2360 2360 2358 2351 2355 2365 2357 2356 2356 2365 2348 2359 2354 2347 2354 2360 2348 2349 2341 2350 2346 2348 2342 2349 2351 2347 2342 2347 2348 2346 2359 2338 2347 2354 2348 2351 2351 2375 2391 2418 2431 2446 2456 2430 2441 2438 2445 2443 2453 2439 2451 2427 2433 2432 2440 2441 2464 2437 2440 2432 2463 2455 2463 2411 2442 2465 2451 2505 2458 2544 2506 2582 2687
2708 2673 2552 2539 2555 2577 2530 2511 2521 2518 2514 2507 2488 2523 2487 2506 2497 2488 2487 2494 2504 2491 2499 2474 2477 2466 2453 2392 2376 2378 2379 2377 2363 2376 2365 2376 2371 2370 2369 2364 2361 2366 2355 2368 2359 2357 2367 2356 2353 2357 2359 2362 2362 2363 2357 2357 2363 2354 2349 2354 2349 2353 2350 2353 2356 2352 2349 2357 2355 2350 2350 2348 2359 2344 2350 2350 2347 2351 2362 2349 2351 2357 2351 2351 2371 2432 2445 2450 2441 2454 2468 2445 2451 2443 2457 2453 2461 2452 2462 2455 2456 2437 2467 2445 2448 2470 2450 2476 2441 2465 2465 2527 2448 2497 2450 2476 2506 2467 2560 2776
2859 2907 2551 2598 2589 2549 2555 2535 2572 2593 2578 2540 2511 2561 2515 2506 2512 2491 2507 2525 2495 2499 2509 2490 2497 2487 2415 2392 2375 2373 2376 2362 2356 2373 2357 2359 2360 2356 2364 2360 2357 2361 2355 2357 2349 2354 2355 2353 2352 2362 2355 2347 2357 2347 2355 2355 2361 2348 2347 2353 2352 2352 2351 2337 2349 2342 2350 2344 2343 2342 2335 2350 2346 2341 2346 2343 2349 2346 2349 2345 2344 2350 2349 2351 2369 2358 2440 2451 2420 2441 2439 2434 2457 2459 2455 2433 2454 2470 2498 2462 2444 2455 2467 2439 2456 2480 2456 2459 2468 2484 2384 2424 2521 2636 0 0 0 0 0 0
0 0 3008 2800 2703 2825 2836 2705 2619 2672 2659 2625 2552 2550 2618 2581 2543 2540 2604 2540 2540 2543 2531 2482 2490 2485 2451 2373 2372 2364 2367 2363 2367 2374 2365 2368 2365 2370 2361 2355 2353 2365 2362 2362 2366 2360 2351 2354 2352 2349 2366 2350 2348 2356 2358 2364 2348 2346 2354 2347 2350 2341 2352 2356 2344 2357 2344 2348 2354 2348 2341 2348 2344 2348 2349 2348 2341 2344 2354 2347 2351 2356 2345 2355 2354 2409 2445 2452 2435 2417 2437 2421 2443 2459 2404 2455 2434 2481 2480 2443 2479 2525 2431 2449 2471 2480 2468 2475 2499 2497 2543 2620 2505 2571 2574 2597 0 0 0 0
3081 3076 3037 2758 2728 2833 2718 2595 2669 2630 2638 2609 2615 2589 2592 2540 2548 2541 2498 2545 2500 2454 2503 2499 2470 2491 2447 2383 2377 2377 2377 2371 2377 2380 2363 2373 2373 2367 2359 2372 2363 2363 2365 2363 2364 2355 2361 2359 2359 2365 2354 2355 2361 2361 2360 2355 2354 2362 2352 2357 2357 2355 2349 2350 2356 2349 2358 2352 2343 2349 2353 2349 2349 2346 2355 2354 2342 2349 2356 2346 2356 2349 2359 2350 2361 2423 2431 2440 2457 2450 2454 2452 2436 2434 2451 2458 2452 2420 2438 2438 2456 2448 2454 2434 2438 2441 2458 2458 2446 2440 2439 2512 2491 2480 2468 2534 2519 2486 2514 2653
2666 2708 2542 2561 2527 2575 2516 2534 2504 2524 2519 2519 2498 2508 2509 2513 2485 2475 2497 2494 2479 2494 2474 2476 2480 2481 2444 2385 2374 2378 2368 2377 2380 2372 2363 2370 2363 2372 2379 2367 2359 2367 2359 2362 2354 2359 2359 2359 2356 2357 2366 2351 2364 2362 2360 2348 2352 2355 2345 2351 2347 2348 2357 2361 2354 2349 2350 2356 2348 2351 2344 2352 2345 2340 2341 2349 2348 2352 2340 2357 2339 2362 2338 2353 2371 2412 2429 2434 2442 2445 2451 2445 2441 2443 2454 2448 2441 2442 2433 2439 2430 2436 2437 2448 2444 2437 2436 2426 2437 2424 2449 2459 2404 2448 2432 2486 2467 2473 2471 2506
2594 2647 2563 2546 2533 2553 2526 2506 2496 2549 2504 2515 2491 2508 2505 2520 2510 2506 2487 2497 2487 2508 2497 2482 2473 2481 2463 2399 2381 2383 2380 2376 2370 2374 2377 2370 2372 2372 2365 2367 2361 2371 2365 2363 2366 2359 2362 2365 2360 2362 2362 2356 2359 2355 2352 2357 2348 2359 2365 2350 2350 2352 2357 2355 2350 2353 2352 2350 2353 2357 2351 2343 2349 2347 2344 2351 2353 2340 2345 2342 2350 2354 2352 2353 2361 2407 2430 2440 2447 2437 2436 2450 2440 2452 2442 2423 2437 2432 2391 2441 2437 2453 2449 2422 2423 2430 2415 2447 2443 2445 2440 2481 2474 2429 2450 2494 2510 2590 2624 0
2620 2633 2551 2514 2520 2582 2512 2524 2494 2505 2516 2489 2511 2521 2506 2503 2504 2539 2500 2482 2493 2505 2500 2494 2477 2471 2465 2391 2379 2377 2383 2372 2374 2375 2370 2362 2376 2365 2374 2365 2368 2364 2364 2363 2364 2361 2360 2351 2357 2367 2365 2356 2358 2349 2358 2356 2365 2350 2350 2355 2359 2357 2356 2348 2349 2361 2357 2360 2352 2355 2362 2354 2358 2352 2358 2356 2355 2360 2358 2358 2358 2351 2356 2353 2359 2421 2441 2454 2432 2443 2443 2431 2446 2451 2454 2456 2437 2428 2436 2456 2434 2450 2435 2451 2441 2435 2454 2442 2448 2463 2429 2497 2474 2451 2477 2428 2551 2482 2486 2657
2597 2607 2515 2534 2528 2552 2490 2483 2491 2545 2496 2498 2495 2528 2481 2482 2484 2489 2497 2489 2480 2479 2499 2478 2478 2478 2444 2374 2377 2377 2380 2373 2359 2374 2376 2375 2369 2362 2367 2367 2368 2364 2362 2365 2362 2372 2353 2358 2350 2356 2359 2362 2351 2354 2353 2372 2346 2354 2356 2357 2353 2345 2355 2352 2353 2345 2349 2354 2346 2347 2349 2356 2351 2348 2344 2358 2350 2339 2347 2346 2350 2349 2355 2355 2358 2415 2422 2430 2446 2445 2429 2451 2450 2421 2427 2442 2437 2422 2434 2449 2434 2423 2441 2432 2444 2418 2444 2413 2446 2434 2477 2454 2468 2478 2498 2474 2456 2397 2564 0
2778 2777 2699 2540 2569 2678 2518 2584 2523 2576 2514 2536 2548 2540 2517 2520 2529 2537 2510 2498 2518 2500 2518 2499 2532 2507 2432 2390 2382 2376 2374 2372 2378 2376 2377 2365 2369 2363 2374 2375 2360 2357 2364 2374 2362 2372 2363 2365 2365 2356 2355 2360 2352 2365 2362 2369 2365 2363 2363 2354 2352 2353 2363 2349 2356 2354 2359 2352 2355 2353 2347 2349 2349 2352 2351 2348 2339 2348 2343 2349 2362 2353 2361 2357 2376 2398 2448 2450 2420 2455 2430 2496 2465 2501 2438 2497 2458 2439 2430 2507 2486 2459 2449 2464 2444 2459 2429 2486 2514 2535 2465 2551 2619 2487 0 0 0 0 0 0
0 3094 2942 2791 2930 2764 2779 2769 2665 2702 2638 2705 2612 2744 2695 2564 2605 2603 2597 2611 2574 2566 2568 2560 2540 2496 2490 2397 2385 2377 2375 2377 2374 2378 2378 2366 2384 2379 2377 2371 2371 2372 2368 2375 2376 2371 2373 2361 2366 2348 2370 2362 2365 2375 2363 2367 2368 2358 2360 2353 2366 2367 2356 2354 2362 2361 2362 2357 2356 2354 2355 2349 2370 2363 2358 2360 2355 2367 2365 2364 2355 2356 2360 2366 2362 2414 2446 2466 2460 2435 2481 2503 2528 2493 2455 2482 2511 2521 2523 2504 2448 2529 2514 2510 2497 2496 2490 2448 2450 2557 2608 2555 0 2672 0 0 0 0 0 0
0 0 0 2733 2641 0 2803 2623 2599 2548 2582 2558 2557 2614 2642 2530 2552 2508 2533 2456 2531 2493 2427 2449 2491 2458 2407 2370 2382 2386 2375 2384 2378 2363 2374 2371 2373 2373 2362 2372 2369 2363 2363 2372 2361 2364 2367 2360 2360 2363 2372 2366 2356 2352 2354 2364 2356 2356 2359 2355 2356 2355 2369 2350 2361 2362 2357 2359 2352 2353 2353 2359 2348 2355 2359 2361 2359 2360 2342 2347 2347 2351 2357 2348 2348 2361 2367 2362 2349 2377 2383 2366 2344 2357 2358 2378 2349 2382 2382 2358 2369 2398 2384 2367 2392 2369 2379 2364 2378 2403 2347 2392 2379 2307 2370 2353 2434 2495 0 0
2579 2764 2599 2526 2510 2539 2547 2511 2505 2482 2459 2461 2409 2474 2481 2426 2458 2468 2447 2463 2437 2477 2464 2454 2441 2406 2380 2375 2373 2380 2381 2375 2376 2376 2376 2380 2377 2368 2375 2370 2377 2368 2376 2367 2361 2360 2366 2362 2355 2366 2360 2371 2367 2362 2353 2366 2365 2352 2365 2360 2359 2361 2353 2354 2364 2359 2352 2349 2360 2357 2358 2363 2358 2359 2357 2352 2348 2347 2352 2361 2358 2361 2357 2358 2359 2354 2351 2366 2378 2349 2410 2376 2409 2374 2380 2395 2424 2398 2397 2379 2396 2354 2390 2357 2406 2389 2342 2354 2394 2347 2393 2360 2391 2438 2412 2480 2548 0 0 0
2706 2902 2838 2597 2544 2723 2749 2693 2639 2600 2577 2576 2442 2497 2498 2532 2559 2607 2542 2524 2473 2502 2539 2546 2496 2430 2400 2403 2389 2382 2375 2381 2388 2383 2382 2381 2365 2388 2372 2378 2381 2371 2370 2371 2377 2366 2368 2376 2366 2366 2364 2365 2357 2364 2357 2369 2376 2370 2357 2345 2363 2372 2368 2371 2370 2371 2369 2373 2362 2364 2362 2363 2355 2357 2362 2357 2356 2373 2361 2355 2366 2368 2365 2356 2369 2368 2376 2354 2352 2378 2369 2378 2377 2369 2383 2355 2386 2380 2365 2366 2388 2386 2386 2384 2373 2406 2353 2375 2373 2381 2387 2395 2391 2434 2412 2403 2440 2441 2513 2444
2455 2559 2463 2474 2443 2456 2466 2437 2434 2439 2454 2437 2409 2405 2427 2436 2430 2440 2410 2412 2400 2425 2422 2405 2391 2398 2392 2387 2383 2395 2394 2389 2383 2386 2364 2371 2378 2367 2374 2384 2369 2363 2378 2369 2379 2374 2372 2363 2360 2371 2364 2374 2374 2362 2358 2351 2353 2370 2359 2382 2363 2361 2368 2358 2368 2370 2357 2360 2353 2364 2367 2367 2364 2375 2356 2355 2361 2367 2349 2356 2365 2359 2357 2360 2362 2380 2353 2364 2364 2372 2368 2338 2349 2376 2365 2373 2360 2368 2358 2353 2356 2382 2359 2378 2368 2381 2366 2365 2368 2370 2404 2392 2399 2359 2400 2354 2418 2403 2496 2416
2551 2490 2494 2477 2455 2450 2464 2456 2450 2435 2421 2418 2439 2399 2416 2426 2431 2421 2383 2404 2417 2406 2404 2410 2388 2402 2373 2406 2405 2384 2388 2395 2379 2377 2389 2398 2367 2358 2378 2375 2373 2374 2369 2367 2369 2369 2374 2368 2372 2364 2367 2367 2363 2373 2361 2352 2363 2377 2365 2364 2362 2367 2354 2357 2357 2365 2362 2358 2362 2355 2361 2365 2363 2359 2366 2356 2372 2366 2364 2363 2354 2360 2368 2366 2366 2380 2358 2364 2368 2367 2348 2359 2357 2351 2360 2362 2358 2382 2357 2365 2378 2368 2357 2375 2350 2357 2355 2353 2363 2399 2366 2393 2347 2398 2401 2428 2350 2526 2400 2458
2566 2493 2504 2476 2476 2455 2477 2451 2439 2442 2438 2427 2413 2421 2414 2415 2433 2433 2404 2415 2405 2407 2428 2415 2408 2386 2403 2406 2403 2389 2394 2406 2390 2373 2395 2383 2387 2390 2397 2380 2380 2383 2373 2375 2376 2358 2368 2378 2376 2367 2381 2368 2370 2372 2376 2376 2366 2370 2367 2354 2361 2363 2359 2363 2362 2364 2367 2361 2355 2362 2369 2366 2362 2354 2369 2363 2355 2364 2361 2364 2369 2364 2365 2354 2385 2345 2367 2362 2368 2371 2375 2365 2380 2381 2394 2362 2356 2360 2368 2379 2346 2370 2371 2365 2364 2360 2352 2358 2379 2377 2402 2391 2414 2393 2433 2399 2449 2451 2479 2679
2500 2495 2433 2465 2449 2481 2420 2421 2417 2404 2420 2418 2438 2427 2410 2399 2405 2409 2417 2401 2387 2405 2397 2383 2384 2386 2381 2402 2396 2386 2381 2387 2392 2370 2375 2360 2362 2382 2381 2375 2367 2371 2367 2365 2370 2369 2374 2373 2375 2353 2378 2372 2356 2375 2356 2369 2368 2355 2367 2372 2357 2357 2354 2365 2349 2365 2358 2350 2369 2352 2357 2365 2358 2360 2359 2357 2359 2363 2359 2354 2363 2364 2363 2363 2366 2375 2363 2357 2341 2358 2358 2361 2347 2354 2348 2364 2346 2360 2355 2353 2354 2357 2353 2361 2346 2334 2362 2372 2363 2366 2376 2368 2371 2334 2396 2424 2387 2400 2516 2478
2565 2521 2475 2425 2456 2438 2436 2439 2413 2402 2399 2436 2421 2420 2399 2405 2395 2393 2402 2401 2387 2407 2375 2403 2390 2373 2392 2369 2390 2375 2373 2385 2388 2382 2381 2380 2386 2378 2371 2376 2369 2369 2366 2384 2373 2365 2354 2368 2366 2375 2357 2365 2357 2354 2394 2352 2355 2343 2369 2359 2365 2360 2361 2347 2357 2351 2348 2358 2351 2342 2355 2352 2348 2348 2354 2357 2363 2352 2354 2361 2346 2354 2354 2352 2363 2356 2355 2348 2348 2344 2358 2352 2339 2348 2357 2349 2356 2359 2345 2342 2355 2353 2373 2374 2366 2345 2364 2343 2342 2352 2357 2337 2366 2395 2391 2420 2420 2452 2454 2509
2628 2557 2548 2461 2500 2451 2471 2444 2420 2439 2446 2461 2419 2428 2396 2434 2414 2431 2417 2425 2408 2399 2388 2410 2399 2408 2399 2418 2408 2401 2382 2399 2395 2385 2396 2385 2382 2379 2379 2379 2385 2372 2368 2382 2374 2369 2389 2372 2379 2380 2377 2380 2377 2368 2378 2378 2359 2366 2374 2367 2364 2357 2363 2378 2354 2374 2377 2367 2370 2360 2362 2365 2348 2364 2368 2352 2360 2370 2362 2369 2373 2365 2353 2372 2365 2393 2373 2369 2354 2375 2360 2364 2379 2358 2371 2342 2364 2369 2362 2363 2343 2362 2360 2369 2360 2362 2343 2370 2377 2366 2380 2393 2410 2444 2502 2411 2531 2489 2528 2644
2686 2575 2580 2452 2460 2467 2442 2478 2429 2404 2406 2422 2425 2409 2419 2429 2403 2403 2406 2403 2396 2387 2409 2400 2400 2414 2400 2388 2379 2379 2382 2377 2384 2385 2379 2398 2378 2373 2373 2378 2380 2378 2379 2354 2355 2374 2382 2384 2355 2365 2363 2380 2361 2361 2359 2368 2384 2348 2359 2351 2356 2359 2368 2346 2371 2386 2357 2362 2363 2362 2351 2369 2357 2353 2358 2370 2352 2347 2377 2364 2364 2363 2359 2351 2362 2365 2360 2382 2363 2375 2366 2343 2376 2342 2360 2364 2357 2362 2375 2356 2353 2389 2354 2358 2370 2356 2360 2375 2348 2380 2378 2380 2414 2461 2514 2384 2472 2533 2483 2526
2729 2552 2502 2494 2466 2456 2473 2469 2452 2404 2421 2442 2419 2393 2392 2418 2404 2410 2390 2397 2370 2418 2400 2380 2387 2404 2375 2387 2373 2401 2382 2397 2365 2367 2384 2371 2361 2379 2378 2368 2347 2363 2346 2375 2353 2360 2357 2357 2354 2358 2351 2352 2369 2364 2367 2346 2369 2371 2369 2373 2368 2334 2356 2350 2354 2345 2348 2351 2341 2340 2351 2338 2366 2348 2360 2353 2349 2362 2341 2334 2334 2343 2341 2334 2350 2338 2351 2342 2356 2366 2366 2336 2369 2337 2338 2323 2339 2358 2353 2343 2353 2365 2345 2340 2358 2339 2367 2355 2348 2388 2327 2366 2374 2440 2421 2360 2549 2621 2631 0
2880 2753 2585 2506 2507 2500 2541 2540 2442 2434 2434 2445 2485 2472 2458 2448 2397 2407 2437 2450 2411 2422 2406 2400 2417 2400 2414 2396 2419 2425 2380 2396 2408 2388 2398 2378 2405 2409 2383 2391 2371 2373 2370 2381 2380 2372 2381 2382 2365 2363 2356 2368 2367 2357 2362 2384 2383 2354 2350 2368 2355 2364 2367 2352 2373 2352 2350 2367 2371 2349 2373 2377 2355 2358 2337 2350 2373 2355 2372 2350 2387 2359 2380 2370 2373 2346 2348 2364 2368 2373 2349 2359 2360 2345 2366 2343 2366 2350 2331 2361 2367 2333 2333 2361 2356 2335 2368 2378 2354 2407 2380 2427 2422 2488 2455 2410 2543 2547 0 0
2937 2751 2645 2493 2504 2539 2502 2486 2528 2485 2455 2449 2436 2414 2413 2456 2422 2415 2392 2405 2438 2395 2403 2422 2426 2401 2417 2422 2397 2382 2382 2391 2368 2396 2352 2366 2380 2354 2372 2381 2381 2372 2382 2359 2361 2361 2375 2364 2367 2353 2366 2371 2370 2361 2365 2378 2362 2351 2348 2355 2345 2351 2355 2348 2338 2365 2355 2326 2352 2341 2341 2334 2345 2345 2343 2353 2362 2350 2337 2351 2367 2339 2373 2355 2373 2390 2354 2369 2339 2346 2350 2353 2384 2353 2385 2378 2347 2355 2336 2359 2328 2358 2355 2360 2368 2352 2339 2372 2380 2329 2402 2453 2413 2554 2469 2636 2634 0 0 0
0 3007 2813 2554 2531 2698 2729 2481 2613 2571 2425 2397 2424 2432 2394 2408 2384 2350 2405 2393 2389 2387 2390 2388 2384 2400 2382 2378 2371 2371 2327 2369 2399 2356 2367 2339 2366 2360 2365 2352 2354 2352 2366 2346 2371 2363 2349 2372 2375 2319 2340 2335 2340 2325 2325 2316 2368 2341 2322 2349 2337 2339 2352 2356 2355 2326 2360 2337 2331 2352 2346 2320 2338 2314 2354 2314 2333 2313 2356 2354 2323 2339 2345 2346 2314 2330 2333 2354 2364 2345 2317 2331 2319 2340 2356 2343 2363 2332 2321 2350 2367 2335 2368 2318 2339 2349 2345 2371 2350 2416 2386 2408 2520 2455 2470 0 0 0 0 0
3613 3172 3108 2793 2686 2907 2961 0 2664 2612 2505 2447 2431 2475 2500 2545 2437 2442 2448 2508 2440 2508 2360 2445 2430 2396 2400 2403 2421 2394 2372 2392 2397 2359 2413 2391 2391 2410 2398 2389 2368 2348 2378 2347 2372 2364 2371 2387 2386 2347 2364 2355 2375 2369 2367 2374 2361 2343 2346 2387 2377 2362 2357 2386 2356 2363 2350 2368 2362 2367 2353 2348 2346 2350 2369 2346 2351 2367 2344 2372 2341 2342 2338 2357 2414 2365 2353 2371 2358 2354 2331 2336 2398 2365 2358 2362 2360 2373 2368 2358 2401 2346 2356 2347 2324 2399 2376 2424 2365 2423 2471 2469 2568 0 2683 0 0 0 0 0
3921 3336 3247 3132 2864 0 0 0 0 2699 2511 2590 2465 2440 2475 2441 2478 2416 2478 2441 2455 2395 2474 2403 2428 2402 2430 2408 2390 2398 2432 2404 2400 2435 2400 2411 2382 2393 2376 2379 2360 2411 2381 2393 2395 2369 2370 2339 2361 2382 2364 2391 2357 2377 2397 2333 2362 2399 2359 2381 2386 2337 2344 2395 2341 2333 2335 2363 2338 2337 2347 2351 2373 2322 2317 2380 2357 2355 2373 2380 2361 2318 2374 2355 2366 2380 2351 2364 2358 2334 2350 2349 2398 2342 2352 2327 2364 2393 2310 2375 2387 2375 2368 2425 2390 2356 2384 2347 2369 2407 2336 2531 2527 0 0 0 0 0 0 0
4055 3791 0 0 0 0 0 0 0 0 2614 2681 2545 2620 0 2691 2472 2475 2427 2462 2453 2565 2388 2416 2393 2424 2444 2357 2567 2372 2344 2346 2384 2402 2377 2330 2334 2362 2384 2349 2356 2348 2319 2340 2360 2343 2302 2363 2328 2386 2326 2366 2345 2352 2321 2334 2348 2375 2356 2316 2356 2342 2337 2268 2327 2310 2323 2349 2340 2334 2351 2383 2318 2314 2335 2364 2352 2390 2297 2341 2317 2379 2367 2377 2351 2370 2375 2333 2345 2320 2358 2321 2365 2355 2340 2309 2357 2348 2374 2375 2343 2370 2343 2362 2415 2376 2313 2332 2331 2435 2541 0 0 0 0 0 0 0 0 0
4155 3921 0 0 3731 0 0 0 0 0 0 0 2815 0 0 0 2481 2596 2542 2571 2429 2409 0 2516 2458 2452 2466 0 2473 2469 2482 2474 2416 2450 2403 2344 2387 2412 2358 2404 2329 2385 2336 2369 2388 2401 2368 2393 2393 2437 2360 2364 2373 2407 2367 2347 2353 2335 2359 2313 2351 2340 2356 2357 2371 2371 2350 2348 2402 2378 2400 2356 2329 2313 2384 2352 2375 2393 2355 2405 2396 2350 2376 2467 2380 2348 2361 2398 2389 2379 2340 2354 2354 2467 2392 2320 2331 2387 2357 2350 2412 2384 2447 2297 2458 2417 2438 2422 2579 2438 2571 2620 0 0 0 0 0 0 0 0
