# .PCD v0.7 - Point Cloud Data file format
VERSION 0.7
FIELDS x y z
SIZE 4 4 4
TYPE F F F
COUNT 1 1 1
WIDTH 1957
HEIGHT 1
VIEWPOINT 0 0 0 1 0 0 0
POINTS 1957
DATA ascii
-530.327 260.776 2343.64
-554.029 262.103 2355.57
-573.177 261.258 2347.97
-593.374 260.934 2345.06
-615.748 261.556 2350.66
-636.611 261.518 2350.31
-657.156 261.354 2348.84
-678.734 261.6 2351.04
-699.451 261.508 2350.22
-718.649 260.871 2344.49
-741.295 261.486 2350.02
-759.073 260.397 2340.23
-781.673 260.976 2345.44
-802.374 260.907 2344.82
-822.354 260.614 2342.18
-849.315 262.493 2359.07
-866.161 261.23 2347.72
-886.642 261.097 2346.52
-904.179 260.123 2337.78
-928.479 261.096 2346.51
-951.739 261.739 2352.29
-968.189 260.522 2341.36
-994.481 261.948 2354.18
-1010.27 260.607 2342.12
-1030.23 260.374 2340.03
-1050.92 260.33 2339.63
-1072.78 260.574 2341.83
-1090.41 259.8 2334.87
-1115.57 260.816 2344
-1137.77 261.115 2346.69
-1158.63 261.1 2346.55
-1181.21 261.467 2349.86
-1205.14 262.115 2355.68
-1222.66 261.37 2348.98
-1244.68 261.596 2351.01
-1265.25 261.516 2350.29
-1277.63 259.772 2334.62
-1316.34 263.353 2366.8
-1351.02 266.026 2390.83
1194.52 246.55 2408.8
1176.72 247.323 2416.35
1147.16 245.605 2399.57
1124.54 245.339 2396.98
1101.08 244.874 2392.42
1082.54 245.506 2398.6
1062.64 245.85 2401.96
1032.33 243.751 2381.45
1012.79 244.157 2385.43
994.651 244.929 2392.97
969.969 244.087 2384.74
945.359 243.225 2376.32
928.401 244.338 2387.19
901.319 242.777 2371.94
880.31 242.815 2372.31
861.276 243.413 2378.16
838.12 242.847 2372.63
817.593 243.034 2374.45
797.619 243.399 2378.02
773.214 242.395 2368.2
751.027 242.049 2364.83
730.903 242.368 2367.94
706.966 241.403 2358.52
688.141 242.178 2366.09
669.686 243.137 2375.46
647.101 242.61 2370.31
626.083 242.655 2370.75
604.77 242.584 2370.06
580.811 241.409 2358.57
559.763 241.401 2358.49
538.014 241.077 2355.34
518.842 241.93 2363.66
496.827 241.472 2359.19
476.624 241.894 2363.31
455.752 242 2364.34
433.391 241.287 2357.38
410.092 239.952 2344.34
390.9 241.006 2354.64
368.413 240.033 2345.13
347.525 240.047 2345.27
327.021 240.346 2348.19
305.543 239.92 2344.03
285.075 240.284 2347.58
263.857 240.022 2345.03
243.589 240.654 2351.2
222.256 240.254 2347.29
201.572 240.545 2350.14
180.366 240.209 2346.85
159.409 240.159 2346.36
138.449 240.09 2345.68
117.492 240.001 2344.82
96.8295 240.607 2350.74
75.9916 240.99 2354.48
54.9432 240.744 2352.07
33.9782 240.784 2352.47
12.9831 240.398 2348.69
-7.92044 239.28 2337.77
-28.8106 239.671 2341.59
-49.9548 240.959 2354.17
-70.7784 240.395 2348.67
-91.5355 239.915 2343.98
-112.629 240.331 2348.05
-132.881 239.102 2336.04
-153.691 239.075 2335.77
-174.409 238.928 2334.33
-195.666 239.472 2339.65
-216.726 239.693 2341.81
-237.404 239.49 2339.82
-258.463 239.673 2341.62
-278.826 239.232 2337.3
-300.481 239.884 2343.67
-321.548 240.011 2344.92
-342.036 239.717 2342.05
-362.903 239.708 2341.96
-384.223 239.982 2344.64
-405.898 240.439 2349.1
-425.128 239.473 2339.66
-446.025 239.493 2339.86
-468.06 240.095 2345.74
-487.724 239.481 2339.74
-507.037 238.752 2332.62
-529.705 239.599 2340.89
-555.208 241.614 2360.58
-572.978 240.241 2347.16
-593.411 240.041 2345.21
-613.265 239.628 2341.18
-635.609 240.184 2346.61
-653.708 239.151 2336.52
-676.84 239.967 2344.48
-700.056 240.762 2352.26
-719.56 240.272 2347.46
-738.638 239.671 2341.59
-754.193 237.992 2325.19
-778.245 239.012 2335.15
-800.151 239.336 2338.33
-817.439 238.299 2328.19
-841.258 239.169 2336.69
-863.434 239.541 2340.33
-886.318 240.088 2345.67
-903.125 239.001 2335.05
-928.138 240.086 2345.65
-948.03 239.828 2343.13
-965.926 239.086 2335.88
-985.204 238.711 2332.22
-1010.68 239.822 2343.07
-1028.24 239.047 2335.5
-1048.48 238.915 2334.21
-1071.54 239.419 2339.13
-1090.83 239.075 2335.78
-1122.85 241.483 2359.29
-1134.3 239.459 2339.52
-1162.6 241 2354.58
-1169.58 238.148 2326.71
-1186.99 237.481 2320.2
-1214.83 238.888 2333.94
-1232.55 238.29 2328.1
-1253.43 238.314 2328.33
-1310.12 245.033 2393.98
-1306.16 240.376 2348.48
-1323.57 239.737 2342.24
1205.54 227.149 2431.01
1177.11 225.853 2417.15
1159.14 226.553 2424.64
1120.26 223.116 2387.85
1100.62 223.449 2391.42
1084.95 224.621 2403.96
1066.23 225.193 2410.08
1036.65 223.449 2391.42
1015.86 223.567 2392.68
995.768 223.845 2395.65
966.561 222.042 2376.36
951.589 223.502 2391.98
929.099 223.222 2388.99
902.001 221.797 2373.73
880.98 221.833 2374.12
860.579 222.03 2376.23
841.751 222.654 2382.91
820.82 222.739 2383.82
796.022 221.752 2373.26
775.055 221.807 2373.84
751.618 221.139 2366.69
732.949 221.875 2374.57
711.531 221.798 2373.75
688.968 221.348 2368.94
667.25 221.151 2366.82
648.147 221.835 2374.14
629.133 222.597 2382.29
606.739 222.174 2377.77
583.428 221.373 2369.2
560.452 220.644 2361.39
540.009 220.894 2364.07
519.698 221.22 2367.56
497.444 220.712 2362.12
476.823 220.915 2364.3
454.059 220.099 2355.56
434.114 220.636 2361.31
410.779 219.417 2348.27
390.74 219.922 2353.67
369.961 220.045 2354.98
348.695 219.875 2353.17
327.573 219.78 2352.15
305.802 219.207 2346.02
285.078 219.355 2347.6
263.86 219.117 2345.05
243.284 219.416 2348.26
223.291 220.348 2358.23
202.171 220.244 2357.12
180.445 219.381 2347.88
160.018 220.078 2355.33
138.334 218.993 2343.73
117.743 219.563 2349.83
96.9131 219.838 2352.77
75.8003 219.444 2348.55
54.9674 219.87 2353.11
33.7487 218.325 2336.58
13.0219 220.112 2355.7
-7.97114 219.835 2352.74
-28.7865 218.61 2339.63
-49.6812 218.764 2341.28
-70.7796 219.458 2348.71
-91.3426 218.555 2339.04
-112.774 219.679 2351.07
-132.826 218.184 2335.07
-154.543 219.459 2348.71
-175.301 219.231 2346.27
-196.166 219.171 2345.63
-216.82 218.909 2342.83
-237.708 218.908 2342.82
-259.449 219.63 2350.55
-278.946 218.487 2338.31
-299.851 218.528 2338.75
-321.145 218.829 2341.98
-341.75 218.653 2340.09
-361.685 218.093 2334.1
-384.547 219.263 2346.61
-404.374 218.671 2340.28
-425.128 218.613 2339.66
-447.703 219.454 2348.66
-465.916 218.177 2334.99
-489.754 219.53 2349.48
-506.821 217.862 2331.63
-530.141 218.908 2342.81
-551.559 219.118 2345.07
-570.376 218.318 2336.5
-591.94 218.588 2339.39
-613.257 218.752 2341.15
-636.642 219.619 2350.42
-655.306 218.853 2342.23
-677.381 219.239 2346.36
-697.488 218.984 2343.63
-719.837 219.427 2348.37
-739.219 218.966 2343.44
-758.779 218.582 2339.32
-781.056 218.98 2343.59
-800.126 218.482 2338.25
-823.019 219.026 2344.08
-842.915 218.765 2341.29
-868.92 220.065 2355.2
-887.342 219.428 2348.38
-909.196 219.649 2350.75
-927.367 218.991 2343.7
-946.12 218.496 2338.41
-963.594 217.733 2330.24
-988.254 218.592 2339.44
-1007.87 218.322 2336.55
-1030.99 218.809 2341.75
-1055.36 219.534 2349.52
-1074.8 219.228 2346.24
-1094.56 218.996 2343.76
-1110.37 217.997 2333.07
-1133.79 218.502 2338.47
-1161.2 219.743 2351.75
-1168.6 217.221 2324.76
-1207.78 220.591 2360.83
-1212.9 217.732 2330.23
-1238.51 218.586 2339.37
-1268.92 220.243 2357.1
-1293.29 220.815 2363.23
-1291.52 216.978 2322.17
-1350.43 223.295 2389.77
1212.06 206.586 2444.16
1177.42 204.357 2417.79
1157.3 204.611 2420.8
1129.03 203.406 2406.55
1110.92 204.02 2413.81
1086.49 203.475 2407.35
1065.72 203.608 2408.93
1039.72 202.726 2398.49
1020.83 203.223 2404.37
1002.18 203.789 2411.07
981.864 204.035 2413.98
947.078 201.217 2380.64
924.315 200.883 2376.69
905.101 201.322 2381.89
884.712 201.515 2384.17
862.876 201.38 2382.57
839.353 200.834 2376.12
822.047 201.787 2387.39
797.22 200.894 2376.83
773.751 200.305 2369.85
755.173 200.984 2377.88
732.301 200.526 2372.47
712.332 200.86 2376.42
688.634 200.13 2367.79
669.63 200.762 2375.26
646.259 200.083 2367.23
624.761 199.957 2365.74
604.477 200.225 2368.91
584.1 200.48 2371.93
561.79 200.067 2367.03
540.192 199.884 2364.87
518.806 199.768 2363.5
498.64 200.132 2367.8
477.381 200.07 2367.07
454.026 199.083 2355.39
434.445 199.735 2363.11
411.952 199.047 2354.97
389.407 198.259 2345.65
370.709 199.451 2359.75
348.817 198.964 2353.99
329.063 199.713 2362.85
306.554 198.778 2351.79
285.78 198.913 2353.38
265.179 199.2 2356.78
243.371 198.55 2349.1
223.466 199.478 2360.07
201.392 198.461 2348.04
180.052 198.015 2342.76
159.401 198.31 2346.24
138.442 198.252 2345.57
117.785 198.684 2350.68
96.3741 197.755 2339.68
75.8277 198.577 2349.4
54.8711 198.541 2348.99
34.0775 199.417 2359.34
13.0101 198.929 2353.57
-7.98417 199.183 2356.58
-28.895 198.496 2348.45
-49.8894 198.719 2351.09
-70.7452 198.421 2347.57
-91.3366 197.687 2338.88
-112.767 198.705 2350.92
-133.892 198.949 2353.82
-154.271 198.17 2344.59
-175.215 198.215 2345.12
-195.406 197.489 2336.54
-217.173 198.343 2346.64
-237.591 197.923 2341.67
-259.432 198.66 2350.4
-279.634 198.127 2344.08
-300.717 198.247 2345.51
-322.341 198.686 2350.7
-341.87 197.859 2340.91
-363.337 198.184 2344.75
-384.519 198.327 2346.45
-404.174 197.707 2339.12
-426.699 198.484 2348.31
-446.55 198.003 2342.61
-468.414 198.417 2347.51
-489.92 198.65 2350.28
-508.049 197.551 2337.28
-530.538 198.168 2344.57
-550.145 197.702 2339.05
-572.927 198.369 2346.95
-594.823 198.693 2350.79
-616.739 199.002 2354.44
-636.328 198.564 2349.26
-653.905 197.547 2337.22
-674.833 197.573 2337.53
-699.13 198.555 2349.14
-718.019 197.988 2342.44
-737.05 197.491 2336.56
-761.165 198.346 2346.68
-779.404 197.666 2338.63
-803.918 198.571 2349.33
-823.927 198.345 2346.66
-847.555 198.98 2354.18
-865.037 198.177 2344.67
-885.487 198.075 2343.47
-907.662 198.355 2346.78
-929.833 198.621 2349.93
-948.631 198.171 2344.61
-966.148 197.479 2336.42
-992.795 198.643 2350.19
-1010.9 198.086 2343.59
-1033.68 198.446 2347.86
-1050.74 197.717 2339.24
-1073.43 198.055 2343.24
-1093.58 197.922 2341.66
-1111.51 197.399 2335.47
-1139.3 198.613 2349.83
-1165.91 199.581 2361.29
-1181.43 198.651 2350.28
-1213.08 200.418 2371.19
-1226.54 199.171 2356.44
-1246.74 199.042 2354.91
-1281.51 201.205 2380.5
-1299.34 200.68 2374.29
-1329.62 202.065 2390.67
-1356.63 202.917 2400.75
1190.59 181.52 2400.86
1184.65 183.923 2432.64
1146.78 181.364 2398.79
1128 181.783 2404.33
1102.39 181.098 2395.28
1080.56 181.018 2394.22
1063.12 181.687 2403.06
1033.99 180.342 2385.28
1015.21 180.784 2391.13
995.509 181.079 2395.03
971.563 180.597 2388.66
946.921 179.962 2380.25
925.97 180.014 2380.94
901.765 179.422 2373.11
878.67 179.027 2367.89
862.738 180.109 2382.19
841.544 180.118 2382.32
816.399 179.261 2370.98
797.729 179.818 2378.34
777.343 180.007 2380.85
752.641 179.18 2369.91
731.305 179.129 2369.24
710.505 179.211 2370.32
687.97 178.847 2365.5
667.094 178.904 2366.26
645.11 178.659 2363.02
628.486 179.931 2379.84
605.866 179.516 2374.35
584.49 179.453 2373.51
561.247 178.789 2364.74
538.557 178.258 2357.71
517.661 178.301 2358.28
497.335 178.552 2361.6
476.327 178.57 2361.84
456.791 179.167 2369.73
433.661 178.344 2358.85
411.032 177.653 2349.71
390.983 178.063 2355.14
369.109 177.641 2349.56
348.913 178.026 2354.64
326.541 177.277 2344.74
306.768 177.934 2353.43
285.619 177.83 2352.06
264.808 177.937 2353.47
243.747 177.881 2352.73
222.495 177.661 2349.81
201.619 177.727 2350.68
180.332 177.403 2346.4
159.175 177.14 2342.93
139.128 178.218 2357.18
117.969 178.003 2354.34
96.5655 177.246 2344.33
75.7528 177.454 2347.08
54.8401 177.498 2347.66
33.8713 177.301 2345.06
13.0138 177.996 2354.24
-7.95605 177.545 2348.28
-28.8664 177.382 2346.13
-49.7767 177.356 2345.78
-70.7052 177.391 2346.24
-91.4402 177.035 2341.54
-112.513 177.343 2345.62
-133.534 177.487 2347.52
-154.184 177.165 2343.26
-174.67 176.755 2337.83
-195.959 177.157 2343.16
-216.774 177.095 2342.33
-238.06 177.394 2346.29
-258.629 177.155 2343.12
-279.121 176.902 2339.78
-300.166 177.01 2341.21
-321.481 177.254 2344.43
-341.387 176.737 2337.6
-362.825 177.028 2341.45
-383.011 176.71 2337.24
-404.283 176.9 2339.75
-426.101 177.298 2345.02
-447.229 177.386 2346.18
-468.149 177.386 2346.18
-488.015 177.005 2341.14
-510.935 177.717 2350.55
-530.676 177.31 2345.18
-549.83 176.746 2337.72
-573.311 177.563 2348.52
-593.507 177.341 2345.59
-612.853 176.889 2339.6
-634.923 177.227 2344.08
-654.873 176.97 2340.68
-676.658 177.21 2343.85
-698.448 177.437 2346.85
-718.193 177.146 2343
-738.726 177.06 2341.87
-756.422 176.318 2332.06
-780.848 177.143 2342.96
-803.46 177.523 2348
-821.473 176.894 2339.68
-842.681 176.967 2340.64
-864.542 177.17 2343.33
-887.8 177.644 2349.59
-903.545 176.627 2336.14
-928.568 177.428 2346.74
-946.965 176.956 2340.49
-962.54 175.988 2327.7
-988.735 176.962 2340.58
-1009.14 176.881 2339.5
-1030.27 176.928 2340.13
-1052.59 177.172 2343.35
-1071.15 176.787 2338.26
-1090 176.464 2333.99
-1113.87 176.951 2340.42
-1133.86 176.814 2338.62
-1142.72 174.978 2314.33
-1159.24 174.359 2306.15
-1203.31 177.833 2352.09
-1215.71 176.589 2335.63
-1229.69 175.611 2322.71
-1249.11 175.43 2320.31
-1279.45 176.764 2337.95
-1296.39 176.233 2330.93
-1318.58 176.421 2333.41
1200.95 161.508 2421.76
1170.83 160.341 2404.26
1152.54 160.78 2410.84
1124.34 159.826 2396.54
1095.46 158.737 2380.21
1077.84 159.27 2388.2
1059.65 159.737 2395.21
1033.35 158.977 2383.8
1014.19 159.306 2388.73
986.851 158.336 2374.2
973.217 159.572 2392.72
941.903 157.899 2367.63
927.563 159.059 2385.04
905.808 158.973 2383.75
883.672 158.815 2381.37
859.481 158.27 2373.2
838.36 158.277 2373.31
816.535 158.148 2371.38
798.182 158.703 2379.69
775.618 158.428 2375.57
755.791 158.712 2379.83
734.081 158.606 2378.24
712.063 158.424 2375.52
688.928 157.976 2368.8
666.401 157.643 2363.81
645.49 157.683 2364.41
625.544 157.97 2368.71
604.252 157.925 2368.02
582.452 157.739 2365.24
560.43 157.476 2361.3
539.547 157.526 2362.05
520.54 158.149 2371.4
498.664 157.917 2367.91
477.01 157.738 2365.23
454.614 157.285 2358.44
432.663 156.95 2353.42
411.8 156.996 2354.1
390.079 156.702 2349.69
369.336 156.79 2351.01
349.129 157.129 2356.1
328.395 157.26 2358.05
307.088 157.115 2355.88
285.556 156.825 2351.54
264.08 156.523 2347.01
243.797 156.936 2353.21
222.164 156.477 2346.32
201.234 156.469 2346.19
180.674 156.78 2350.86
159.208 156.283 2343.4
138.686 156.703 2349.7
117.843 156.845 2351.83
96.2978 155.911 2337.83
75.8328 156.693 2349.56
54.7349 156.266 2343.16
33.9791 156.891 2352.53
13.0165 157.038 2354.73
-7.97121 156.907 2352.76
-28.811 156.164 2341.62
-49.6811 156.141 2341.27
-70.6296 156.305 2343.73
-91.9262 156.988 2353.98
-112.87 156.927 2353.07
-133.051 155.991 2339.03
-153.953 156.039 2339.75
-174.929 156.142 2341.29
-196.415 156.629 2348.6
-216.818 156.243 2342.81
-237.604 156.176 2341.8
-258.572 156.229 2342.6
-278.468 155.675 2334.3
-300.606 156.365 2344.64
-321.138 156.184 2341.93
-342.607 156.453 2345.96
-360.909 155.328 2329.09
-384.215 156.362 2344.59
-404.36 156.069 2340.2
-426.361 156.486 2346.45
-446.007 156.04 2339.76
-467.261 156.171 2341.74
-488.107 156.161 2341.58
-509.124 156.204 2342.22
-529.453 156.041 2339.77
-550.844 156.191 2342.03
-572.469 156.394 2345.08
-592.635 156.198 2342.14
-612.962 156.057 2340.02
-634.775 156.291 2343.53
-654.45 156 2339.17
-677.606 156.532 2347.14
-698.853 156.603 2348.21
-717.437 156.092 2340.54
-737.95 156.016 2339.41
-761.473 156.565 2347.63
-779.714 156.026 2339.56
-800.36 155.985 2338.94
-819.621 155.682 2334.4
-843.491 156.248 2342.89
-863.295 156.052 2339.95
-882.999 155.848 2336.89
-905.121 156.07 2340.21
-922.098 155.415 2330.39
-947.104 156.112 2340.84
-964.967 155.626 2333.56
-986.934 155.81 2336.31
-1008.49 155.922 2338
-1034.04 156.634 2348.68
-1047.82 155.572 2332.75
-1066.72 155.295 2328.59
-1088.87 155.494 2331.58
-1106.72 155.082 2325.41
-1126.17 154.905 2322.75
-1154.35 155.915 2337.89
-1184.49 157.147 2356.37
-1195.73 155.874 2337.27
-1211.25 155.192 2327.05
-1237.77 155.92 2337.97
-1251.14 154.994 2324.08
-1283.91 156.462 2346.09
-1293.62 155.119 2325.95
-1329.52 156.908 2352.78
1206.36 140.547 2432.67
1184.91 140.575 2433.17
1146.17 138.515 2397.51
1133.33 139.567 2415.71
1105.56 138.784 2402.16
1086.96 139.145 2408.41
1061.75 138.657 2399.97
1033.04 137.682 2383.08
1011.54 137.648 2382.5
991.15 137.766 2384.54
971.046 137.93 2387.38
957.118 138.999 2405.88
930.543 138.237 2392.7
905.891 137.733 2383.97
887.228 138.136 2390.95
860.242 137.232 2375.3
842.098 137.728 2383.89
822.14 137.946 2387.66
796.991 137.281 2376.14
778.175 137.7 2383.4
756.776 137.673 2382.93
735.041 137.581 2381.34
713.284 137.48 2379.59
690.674 137.203 2374.8
669.723 137.249 2375.59
648.714 137.285 2376.22
625.868 136.922 2369.93
605.306 137.05 2372.16
582.279 136.61 2364.53
563.49 137.168 2374.19
538.941 136.313 2359.39
519.958 136.853 2368.75
498.311 136.708 2366.24
474.106 135.818 2350.83
454.667 136.274 2358.72
433.616 136.267 2358.6
412.021 136.08 2355.37
391.76 136.338 2359.82
371.085 136.472 2362.14
350.342 136.596 2364.28
327.885 136.024 2354.39
306.739 135.955 2353.2
286.193 136.162 2356.79
264.559 135.843 2351.27
243.519 135.8 2350.52
222.756 135.919 2352.57
202.197 136.199 2357.43
180.697 135.837 2351.16
159.431 135.579 2346.69
138.468 135.54 2346.01
117.758 135.778 2350.14
96.7208 135.66 2348.1
76.0357 136.108 2355.85
54.9284 135.853 2351.44
33.9835 135.934 2352.83
13.0623 136.523 2363.02
-7.95533 135.659 2348.07
-28.8146 135.303 2341.92
-49.9627 136.033 2354.54
-70.819 135.771 2350.02
-91.8211 135.845 2351.29
-112.646 135.677 2348.39
-133.635 135.729 2349.29
-154.562 135.713 2349.01
-175.025 135.341 2342.58
-196.107 135.477 2344.92
-216.937 135.429 2344.09
-238.44 135.772 2350.04
-258.713 135.417 2343.88
-279.92 135.567 2346.48
-300.515 135.42 2343.94
-321.855 135.606 2347.16
-341.638 135.154 2339.32
-363.856 135.661 2348.11
-385.713 135.986 2353.73
-405.428 135.561 2346.38
-425.875 135.411 2343.78
-444.937 134.854 2334.15
-467.705 135.421 2343.96
-488.569 135.412 2343.79
-509.605 135.449 2344.43
-531.935 135.813 2350.74
-551.819 135.549 2346.17
-573.005 135.613 2347.27
-595.148 135.89 2352.07
-613.026 135.208 2340.27
-637.19 135.912 2352.44
-655.593 135.381 2343.25
-677.675 135.619 2347.38
-694.936 134.907 2335.05
-717.8 135.292 2341.72
-742.826 136.052 2354.87
-760.006 135.372 2343.11
-781.05 135.399 2343.57
-803.019 135.58 2346.71
-822.671 135.371 2343.09
-847.624 136.023 2354.37
-867.863 135.905 2352.33
-885.897 135.456 2344.55
-910.239 135.969 2353.45
-926.948 135.345 2342.64
-950.176 135.68 2348.43
-966.186 134.991 2336.51
-992.838 135.787 2350.29
-1010.94 135.405 2343.67
-1032.1 135.44 2344.28
-1047.9 134.783 2332.91
-1070.12 134.962 2336.01
-1090.21 134.872 2334.45
-1115.81 135.452 2344.49
-1137.13 135.502 2345.35
-1155.31 135.182 2339.82
-1181.87 135.837 2351.16
-1207.17 136.327 2359.64
-1237.6 137.369 2377.68
-1242.98 135.644 2347.81
-1275.82 136.922 2369.93
-1288.29 136.007 2354.1
-1312.13 136.303 2359.23
-1337.45 136.742 2366.81
1205.93 118.815 2431.81
1177.93 118.181 2418.83
1145.75 117.096 2396.63
1128.68 117.544 2405.8
1099.73 116.747 2389.49
1081.64 117.096 2396.62
1060.15 117.083 2396.35
1036.23 116.794 2390.45
1016.24 116.947 2393.57
998.069 117.319 2401.19
974.076 117.009 2394.83
944.216 115.964 2373.45
925.132 116.225 2378.79
904.847 116.344 2381.22
882.385 116.181 2377.9
859.242 115.919 2372.54
840.456 116.247 2379.24
816.309 115.831 2370.72
794.472 115.728 2368.63
779.129 116.593 2386.32
757.102 116.477 2383.96
730.645 115.654 2367.1
710.153 115.754 2369.15
686.791 115.378 2361.45
667.848 115.744 2368.94
649.527 116.244 2379.19
627.165 116.032 2374.84
606.069 116.047 2375.15
582.778 115.627 2366.56
562.82 115.862 2371.37
541.631 115.852 2371.17
516.981 115.071 2355.18
497.714 115.473 2363.4
472.544 114.48 2343.08
453.93 115.057 2354.89
434.899 115.579 2365.58
411.866 115.037 2354.48
391.123 115.11 2355.98
369.086 114.79 2349.42
348.894 115.039 2354.51
327.762 114.989 2353.51
306.236 114.786 2349.35
285.243 114.767 2348.96
265.13 115.128 2356.34
244.045 115.092 2355.6
222.578 114.852 2350.69
201.524 114.798 2349.58
180.935 115.026 2354.26
159.1 114.418 2341.81
138.592 114.726 2348.12
117.614 114.684 2347.26
96.4377 114.389 2341.22
75.6851 114.573 2344.98
54.8144 114.65 2346.56
33.9851 114.962 2352.95
13.0023 114.924 2352.16
-7.94556 114.583 2345.19
-28.9389 114.917 2352.02
-49.6685 114.363 2340.68
-70.7322 114.678 2347.14
-91.5917 114.594 2345.42
-112.651 114.745 2348.5
-133.414 114.594 2345.42
-154.439 114.678 2347.13
-175.033 114.461 2342.68
-195.866 114.429 2342.04
-217.223 114.68 2347.18
-237.14 114.194 2337.23
-258.724 114.524 2343.99
-280.524 114.893 2351.54
-299.131 113.994 2333.14
-321.734 114.636 2346.27
-340.931 114.06 2334.48
-362.648 114.345 2340.31
-383.63 114.379 2341.02
-404.594 114.405 2341.55
-426.249 114.615 2345.84
-446.262 114.383 2341.1
-467.528 114.48 2343.07
-487.364 114.232 2338.01
-510.26 114.693 2347.45
-531.294 114.716 2347.91
-551.609 114.588 2345.28
-574.209 114.926 2352.2
-590.512 114.024 2333.75
-614.817 114.677 2347.1
-636.688 114.847 2350.59
-656.42 114.633 2346.21
-677.14 114.599 2345.52
-698.088 114.605 2345.64
-717.818 114.417 2341.78
-736.235 114.035 2333.98
-760.024 114.484 2343.16
-782.015 114.645 2346.46
-800.773 114.336 2340.14
-822.687 114.483 2343.13
-841.551 114.207 2337.5
-864.422 114.476 2343
-887.324 114.737 2348.33
-906.651 114.533 2344.17
-923.653 114.052 2334.32
-942.695 113.838 2329.94
-969.249 114.521 2343.92
-987.795 114.249 2338.35
-1008.97 114.286 2339.11
-1024.86 113.735 2327.84
-1044.22 113.583 2324.72
-1069.71 114.091 2335.11
-1087.68 113.793 2329.02
-1113.66 114.329 2339.98
-1129.28 113.801 2329.17
-1155.31 114.321 2339.82
-1177.83 114.482 2343.13
-1185.78 113.246 2317.83
-1209.92 113.572 2324.51
-1245.31 114.926 2352.21
-1259.24 114.287 2339.13
-1282.52 114.504 2343.56
-1297.55 113.988 2333.01
-1329.58 114.959 2352.88
1196.1 96.3419 2411.99
1182.68 97.0051 2428.59
1158.19 96.7675 2422.64
1130.75 96.2703 2410.2
1102.59 95.6919 2395.72
1085.69 96.0868 2405.6
1058.89 95.6029 2393.49
1040.55 95.8796 2400.41
1011.9 95.1974 2383.33
995.72 95.6848 2395.54
964.993 94.7648 2372.5
949.71 95.3541 2387.26
923.277 94.8253 2374.02
904.45 95.0712 2380.18
883.734 95.1257 2381.54
863.285 95.2121 2383.7
841.417 95.1426 2381.96
815.297 94.5761 2367.78
796.343 94.833 2374.21
778.167 95.199 2383.37
752.836 94.6858 2370.53
730.909 94.5832 2367.96
710.41 94.665 2370.01
688.995 94.6259 2369.03
667.822 94.6186 2368.85
645.292 94.4124 2363.68
628.928 95.1248 2381.52
606.541 94.9443 2377
582.517 94.485 2365.5
559.8 94.2113 2358.65
538.719 94.2022 2358.42
517.604 94.1863 2358.02
498.314 94.5151 2366.25
474.699 94.0165 2353.77
455.616 94.4106 2363.64
433.8 94.2495 2359.6
413.574 94.4348 2364.24
391.274 94.141 2356.89
369.849 94.0365 2354.27
348.15 93.8456 2349.49
327.2 93.8447 2349.47
306.613 93.9554 2352.24
284.872 93.7025 2345.91
264.34 93.8385 2349.31
243.11 93.7293 2346.58
222.854 94.0099 2353.6
200.835 93.5281 2341.54
181.542 94.3514 2362.16
159.636 93.8545 2349.71
138.529 93.7479 2347.05
117.46 93.6339 2344.19
96.7225 93.7915 2348.14
75.6827 93.6626 2344.91
54.8128 93.7257 2346.49
33.8254 93.5419 2341.89
13.0185 94.069 2355.09
-7.9961 94.2695 2360.1
-28.8643 93.7042 2345.95
-50.0485 94.209 2358.59
-70.6397 93.6289 2344.07
-91.5889 93.6799 2345.34
-112.408 93.6038 2343.44
-133.07 93.4407 2339.36
-154.106 93.5492 2342.07
-174.878 93.491 2340.61
-196.359 93.7835 2347.94
-216.572 93.4721 2340.14
-238.04 93.7099 2346.09
-259.154 93.7812 2347.88
-279.095 93.4489 2339.56
-300.645 93.6642 2344.95
-321.451 93.6347 2344.21
-342.651 93.7165 2346.26
-363.553 93.7121 2346.15
-383.939 93.5825 2342.91
-405.089 93.6429 2344.42
-425.519 93.539 2341.82
-447.181 93.703 2345.92
-469.661 94.0161 2353.76
-486.325 93.1881 2333.03
-509.603 93.6433 2344.43
-528.406 93.2726 2335.15
-551.816 93.7125 2346.16
-572.764 93.7175 2346.28
-595.634 94.0254 2353.99
-612.512 93.3987 2338.3
-634.049 93.5003 2340.85
-654.506 93.4413 2339.37
-675.447 93.4529 2339.66
-695.206 93.305 2335.96
-718.956 93.686 2345.5
-738.905 93.564 2342.44
-761.837 93.8161 2348.75
-783.241 93.8715 2350.14
-800.085 93.3919 2338.13
-823.97 93.7375 2346.79
-847.261 94.0003 2353.36
-862.301 93.3569 2337.26
-887.984 93.869 2350.08
-906.242 93.5907 2343.11
-922.13 93.0857 2330.47
-945.264 93.3183 2336.29
-968.431 93.544 2341.94
-992.015 93.7997 2348.34
-1012.47 93.7551 2347.23
-1031.24 93.5595 2342.33
-1056.02 93.9061 2351.01
-1070.47 93.338 2336.79
-1090.15 93.2389 2334.3
-1113.16 93.4238 2338.93
-1134.88 93.4948 2340.71
-1155.23 93.4531 2339.66
-1170.57 93.0145 2328.69
-1201.63 93.8182 2348.81
-1207.99 92.6994 2320.8
-1238.68 93.4539 2339.69
-1257.26 93.2846 2335.45
-1281.48 93.5323 2341.65
-1300.37 93.39 2338.08
-1327.52 93.8352 2349.23
1195.96 74.8282 2411.71
1173.79 74.7859 2410.34
1152.02 74.7673 2409.74
1123.4 74.2953 2394.53
1102.46 74.3233 2395.43
1074.47 73.8669 2380.72
1061.59 74.4528 2399.6
1038.44 74.327 2395.55
1013.34 74.0534 2386.73
991.001 73.9743 2384.18
972.411 74.1777 2390.74
949.23 74.0323 2386.05
922.443 73.5924 2371.88
908.25 74.1603 2390.18
882.937 73.8255 2379.39
861.144 73.7759 2377.79
842.986 74.0431 2386.4
817.48 73.6621 2374.12
798.794 73.8917 2381.52
774.046 73.5576 2370.75
753.96 73.6603 2374.06
734.362 73.8181 2379.15
712.338 73.734 2376.44
688.638 73.4659 2367.8
668.56 73.5796 2371.46
647.851 73.629 2373.05
628.348 73.8235 2379.32
607.957 73.9235 2382.55
583.408 73.5068 2369.12
559.968 73.2039 2359.35
539.326 73.2574 2361.08
519.475 73.427 2366.54
497.435 73.2884 2362.08
474.251 72.9616 2351.54
455.754 73.3592 2364.36
433.029 73.0816 2355.41
411.978 73.0726 2355.12
390.412 72.9663 2351.7
370.273 73.13 2356.97
349.284 73.1352 2357.14
328.266 73.1349 2357.13
306.192 72.8829 2349.01
285.925 73.0557 2354.58
265.204 73.1309 2357
243.598 72.9537 2351.29
222.358 72.8631 2348.37
201.752 72.9831 2352.24
180.067 72.6955 2342.97
159.619 72.8968 2349.46
138.573 72.845 2347.79
117.597 72.8184 2346.93
96.8353 72.9409 2350.88
75.8678 72.9337 2350.65
54.8768 72.8898 2349.23
33.9949 73.0261 2353.62
13.0502 73.2496 2360.83
-7.96815 72.9712 2351.85
-28.8734 72.8111 2346.69
-49.9795 73.0793 2355.34
-70.3007 72.3806 2332.82
-91.6568 72.8232 2347.08
-112.635 72.8569 2348.17
-133.055 72.5753 2339.09
-154.154 72.6906 2342.81
-174.859 72.6144 2340.35
-195.171 72.409 2333.73
-217.1 72.785 2345.85
-237.206 72.5376 2337.88
-259.345 72.9015 2349.61
-280.603 72.9819 2352.2
-299.976 72.5951 2339.73
-321.008 72.6337 2340.98
-342.613 72.7895 2346
-363.665 72.8167 2346.87
-385.189 72.9302 2350.53
-405.214 72.7628 2345.14
-426.185 72.7736 2345.48
-446.756 72.718 2343.69
-466.87 72.5963 2339.77
-487.492 72.5609 2338.63
-508.059 72.5203 2337.32
-530.771 72.777 2345.6
-551.295 72.7257 2343.94
-572.935 72.8201 2346.98
-594.095 72.8488 2347.91
-614.466 72.7823 2345.76
-635.02 72.7409 2344.43
-656.583 72.8142 2346.79
-676.199 72.6736 2342.26
-697.404 72.7071 2343.34
-718.285 72.706 2343.31
-737.313 72.5226 2337.39
-759.279 72.6303 2340.87
-778.407 72.468 2335.64
-801.93 72.7128 2343.52
-822.546 72.6882 2342.73
-843.435 72.6883 2342.74
-862.887 72.5676 2338.85
-887.523 72.8783 2348.86
-904.328 72.5463 2338.16
-926.06 72.6158 2340.4
-950.395 72.8817 2348.97
-968.31 72.6546 2341.65
-989.169 72.6532 2341.61
-1010.37 72.6762 2342.35
-1029.5 72.553 2338.37
-1047.7 72.37 2332.48
-1077.83 73.002 2352.84
-1098.04 72.9513 2351.21
-1108.29 72.2529 2328.7
-1138.22 72.8394 2347.61
-1154.2 72.528 2337.57
-1180.29 72.8525 2348.03
-1193.28 72.3703 2332.49
-1226.29 73.0984 2355.95
-1231.04 72.1456 2325.25
-1255.67 72.3707 2332.5
-1267.87 71.8832 2316.79
-1309.43 73.0494 2354.37
-1307.67 71.8002 2314.11
1208.18 53.8707 2436.35
1175.77 53.3854 2414.4
1149.65 53.173 2404.79
1139.33 53.6969 2428.49
1107.28 53.1973 2405.89
1081.26 52.9735 2395.77
1064.23 53.1901 2405.57
1032.29 52.6547 2381.35
1017.84 53.0081 2397.33
990.433 52.6871 2382.82
971.478 52.8116 2388.45
948.685 52.7283 2384.68
924.083 52.5384 2376.09
906.307 52.7368 2385.06
884.164 52.6844 2382.7
858.941 52.4415 2371.71
841.165 52.6524 2381.25
822.535 52.8194 2388.8
797.057 52.5439 2376.34
776.694 52.5997 2378.86
756.543 52.6734 2382.2
734.816 52.6385 2380.62
713.641 52.6422 2380.79
689.625 52.4301 2371.2
668.435 52.4263 2371.02
647.993 52.4828 2373.58
623.892 52.2367 2362.45
606.115 52.5214 2375.33
583.777 52.4173 2370.62
559.401 52.1155 2356.96
541.006 52.369 2368.43
518.735 52.2527 2363.17
497.754 52.262 2363.59
476.73 52.2675 2363.84
455.291 52.2258 2361.95
432.586 52.0278 2353
412.073 52.0867 2355.66
392.303 52.2509 2363.09
369.738 52.0403 2353.57
348.925 52.0658 2354.72
327.791 52.0436 2353.71
307.039 52.0831 2355.5
285.871 52.0529 2354.14
264.26 51.9307 2348.61
243.449 51.9582 2349.85
222.882 52.0477 2353.9
201.885 52.0452 2353.78
180.34 51.8843 2346.51
159.521 51.9176 2348.01
138.488 51.8806 2346.34
117.925 52.0383 2353.47
96.6113 51.8606 2345.44
75.789 51.9218 2348.2
54.8897 51.9567 2349.78
34.0029 52.0539 2354.18
13.0257 52.1027 2356.39
-7.98019 52.0811 2355.41
-28.7695 51.7017 2338.25
-49.7793 51.8708 2345.9
-70.739 51.9031 2347.36
-91.9125 52.0418 2353.63
-112.662 51.9333 2348.73
-132.973 51.6884 2337.65
-153.797 51.6823 2337.38
-175.645 51.9808 2350.87
-196.55 51.9664 2350.22
-216.414 51.7058 2338.44
-238.17 51.9035 2347.38
-258.967 51.877 2346.18
-279.484 51.8027 2342.82
-300.046 51.7465 2340.28
-322.576 52.0149 2352.42
-342.259 51.8194 2343.57
-363.29 51.8388 2344.45
-385.116 51.9634 2350.09
-405.477 51.8877 2346.66
-427.356 52.004 2351.92
-447.794 51.9424 2349.14
-468.345 51.8988 2347.17
-489.439 51.9165 2347.97
-510.297 51.9088 2347.62
-530.89 51.8758 2346.12
-551.876 51.8822 2346.41
-574.012 51.9923 2351.39
-592.51 51.7768 2341.65
-615.869 51.9862 2351.12
-632.807 51.6577 2336.26
-657.266 51.9445 2349.23
-675.515 51.738 2339.89
-697.555 51.8256 2343.85
-720.492 51.9726 2350.5
-741.682 51.989 2351.25
-761.91 51.9389 2348.98
-779.837 51.7388 2339.93
-803.071 51.892 2346.86
-821.395 51.7282 2339.45
-842.257 51.7285 2339.46
-864.105 51.7878 2342.15
-883.467 51.6988 2338.12
-907.76 51.8959 2347.03
-928.457 51.8831 2346.46
-951.713 52.0108 2352.23
-967.36 51.726 2339.35
-989.757 51.8066 2343
-1010.96 51.8229 2343.73
-1029.71 51.7147 2338.84
-1049.14 51.6447 2335.67
-1066.38 51.4718 2327.85
-1092.33 51.7179 2338.99
-1112.8 51.7002 2338.18
-1132.77 51.6599 2336.36
-1156.63 51.7956 2342.5
-1171.54 51.5327 2330.61
-1193.05 51.5642 2332.03
-1217.29 51.7106 2338.66
-1243.43 51.9316 2348.65
-1261.12 51.7981 2342.61
-1278.66 51.6631 2336.5
-1304.81 51.8744 2346.06
-1340.86 52.4667 2372.85
1195.45 31.8099 2410.68
1176.79 31.8868 2416.5
1136 31.3554 2376.23
1123.76 31.6071 2395.3
1109.51 31.8108 2410.75
1091.27 31.906 2417.96
1056.28 31.5053 2387.59
1030.83 31.3787 2378
1012.12 31.4559 2383.85
991.718 31.4831 2385.91
971.232 31.5086 2387.84
948.074 31.4467 2383.15
922.397 31.2964 2371.76
904.656 31.4146 2380.72
878.372 31.2348 2367.09
861.784 31.3993 2379.56
837.619 31.2891 2371.21
819.721 31.4134 2380.63
793.036 31.1986 2364.35
771.528 31.1814 2363.04
755.138 31.3757 2377.77
731.972 31.2917 2371.4
708.864 31.2052 2364.85
688.888 31.2555 2368.66
669.075 31.3166 2373.29
643.875 31.1213 2358.49
625.26 31.2419 2367.63
603.485 31.2074 2365.02
584.581 31.3244 2373.88
561.101 31.1957 2364.13
540.196 31.2057 2364.89
519.885 31.2522 2368.41
497.21 31.1546 2361.01
477.791 31.2613 2369.1
454.413 31.1069 2357.4
432.471 31.0406 2352.38
411.619 31.0497 2353.07
391.053 31.0826 2355.56
369.329 31.022 2350.96
348.099 30.998 2349.15
327.841 31.0631 2354.08
306.828 31.0605 2353.88
285.313 31.0032 2349.54
264.301 30.9957 2348.97
244.415 31.1302 2359.17
222.822 31.0524 2353.27
201.916 31.0641 2354.15
179.525 30.8233 2335.91
159.275 30.9353 2344.39
137.92 30.8342 2336.73
117.594 30.9677 2346.85
96.503 30.9144 2342.81
75.4461 30.8454 2337.58
54.7583 30.9322 2344.16
34.0083 31.0693 2354.55
12.9724 30.9665 2346.76
-7.98484 31.0987 2356.78
-28.8602 30.9514 2345.62
-49.5537 30.8149 2335.27
-70.5392 30.887 2340.73
-91.8099 31.0225 2351
-112.296 30.8919 2341.1
-133.391 30.9434 2345.01
-155.068 31.0977 2356.7
-175.076 30.9204 2343.27
-195.081 30.7804 2332.65
-217.093 30.9535 2345.77
-237.803 30.927 2343.76
-258.568 30.9112 2342.57
-279.054 30.8669 2339.21
-299.711 30.8465 2337.66
-320.86 30.876 2339.9
-343.467 31.0337 2351.85
-362.886 30.9017 2341.85
-384.528 30.9631 2346.5
-406.05 31.0089 2349.98
-425.276 30.8836 2340.48
-447.3 30.9637 2346.55
-467.242 30.8989 2341.64
-488.697 30.9355 2344.41
-508.675 30.8793 2340.15
-531.19 30.9756 2347.45
-551.043 30.9152 2342.87
-572.911 30.9682 2346.89
-597.749 31.1722 2362.35
-612.666 30.8627 2338.89
-635.776 30.9726 2347.22
-654.937 30.8893 2340.91
-675.336 30.8677 2339.27
-696.515 30.882 2340.36
-718.837 30.9447 2345.11
-739.683 30.9421 2344.91
-758.625 30.8621 2338.85
-777.418 30.7806 2332.67
-803.184 30.9722 2347.19
-821.841 30.8868 2340.72
-846.439 31.0235 2351.08
-860.418 30.7737 2332.15
-881.468 30.7827 2332.83
-904.277 30.8513 2338.03
-926.008 30.8808 2340.27
-940.216 30.6637 2323.81
-970.547 30.9704 2347.06
-992.613 31.0061 2349.76
-1006.35 30.7853 2333.02
-1030.24 30.8781 2340.06
-1053.78 30.9566 2346.01
-1070.68 30.841 2337.25
-1090.36 30.8081 2334.76
-1106.07 30.6666 2324.04
-1135.09 30.8926 2341.16
-1152.35 30.7959 2333.83
-1173.93 30.8162 2335.37
-1193.2 30.776 2332.32
-1213.74 30.7698 2331.85
-1224.87 30.5288 2313.59
-1254.63 30.7529 2330.57
-1284.1 30.9622 2346.44
-1299.13 30.8226 2335.86
-1305.11 30.4759 2309.58
1211.08 10.4516 2442.18
1185.19 10.4154 2433.74
1152.89 10.3205 2411.57
1134.45 10.3484 2418.09
1107.91 10.3021 2407.27
1088.05 10.3173 2410.82
1061.61 10.2695 2399.64
1039.65 10.2639 2398.34
1012.57 10.2065 2384.93
996.006 10.2549 2396.22
970.167 10.2078 2385.22
952.944 10.2513 2395.39
926.446 10.1947 2382.17
909.69 10.2452 2393.97
883.303 10.1871 2380.38
866.611 10.2406 2392.89
840.009 10.1768 2377.98
815.546 10.1362 2368.5
795.953 10.1557 2373.05
774.686 10.1543 2372.71
756.402 10.1929 2381.75
734.384 10.1821 2379.22
711.211 10.1541 2372.68
700.945 10.3143 2410.12
669.938 10.1698 2376.35
647.345 10.1478 2371.2
629.647 10.2036 2384.24
603.034 10.1138 2363.25
584.145 10.1517 2372.11
559.756 10.0933 2358.46
540.459 10.1257 2366.04
520.781 10.1533 2372.49
497.041 10.1007 2360.21
477.629 10.1353 2368.3
453.88 10.0769 2354.63
433.227 10.0848 2356.49
412.512 10.092 2358.17
392.393 10.1154 2363.63
370.909 10.1042 2361.02
349.445 10.0923 2358.23
328.28 10.088 2357.23
306.851 10.0744 2354.06
284.973 10.0431 2346.74
265.44 10.096 2359.09
244.536 10.1013 2360.35
223.311 10.0931 2358.43
202.274 10.0927 2358.32
180.688 10.0615 2351.05
159.558 10.0509 2348.56
138.992 10.0779 2354.88
118.203 10.0956 2359.02
96.5517 10.0313 2343.99
75.6133 10.0261 2342.76
54.7625 10.0328 2344.34
33.9098 10.0474 2347.73
13.0177 10.0782 2354.94
-7.96513 10.0612 2350.96
-28.7763 10.0091 2338.8
-49.6425 10.0119 2339.45
-70.6351 10.031 2343.91
-91.3878 10.0151 2340.19
-112.257 10.0155 2340.29
-133.515 10.045 2347.18
-154.358 10.0395 2345.91
-175.015 10.0247 2342.45
-196.346 10.0476 2347.78
-217.109 10.0397 2345.95
-238.528 10.0609 2350.91
-258.479 10.0218 2341.76
-279.549 10.0286 2343.36
-300.751 10.039 2345.78
-322.243 10.057 2349.99
-342.482 10.0361 2345.1
-364.292 10.061 2350.92
-384.719 10.0471 2347.67
-405.229 10.0366 2345.23
-426.38 10.0423 2346.56
-447.708 10.0514 2348.69
-466.886 10.0136 2339.85
-490.162 10.0632 2351.43
-511.049 10.0617 2351.08
-532.554 10.0719 2353.48
-551.312 10.0314 2344.02
-572.716 10.0403 2346.09
-593.867 10.0443 2347.01
-612.964 10.0144 2340.03
-634.253 10.0211 2341.6
-656.332 10.0395 2345.9
-677.048 10.0365 2345.2
-696.565 10.0165 2340.53
-718.009 10.0245 2342.41
-740.036 10.0401 2346.03
-762.381 10.0589 2350.43
-780.002 10.0161 2340.42
-800.974 10.0174 2340.73
-823.554 10.0382 2345.6
-846.836 10.0664 2352.18
-863.938 10.0215 2341.69
-886.123 10.0363 2345.15
-907.224 10.0384 2345.65
-925.334 10.0081 2338.56
-948.905 10.0369 2345.29
-966.408 10.0016 2337.05
-986.064 9.98966 2334.25
-1015.52 10.0754 2354.3
-1029.1 10.0034 2337.47
-1051.39 10.0172 2340.69
-1075.33 10.0459 2347.4
-1089.16 9.98083 2332.19
-1113.02 10.0084 2338.63
-1128.62 9.96207 2327.81
-1150.21 9.96928 2329.49
-1183.88 10.0792 2355.17
-1205.57 10.0849 2356.51
-1214.74 9.98758 2333.77
-1241.78 10.038 2345.55
-1255.18 9.97827 2331.59
-1278.41 9.99735 2336.05
-1306.5 10.0532 2349.11
-1321.42 10.0076 2338.45
1200.41 -11.2228 2420.68
1181.68 -11.25 2426.54
1146.85 -11.122 2398.93
1134.02 -11.2066 2417.18
1110.83 -11.1901 2413.62
1080.65 -11.1011 2394.41
1064.84 -11.1592 2406.95
1038.46 -11.1065 2395.58
1020.39 -11.1424 2403.33
997.923 -11.1309 2400.84
971.296 -11.0713 2388
952.573 -11.1013 2394.45
932.969 -11.1221 2398.94
903.295 -11.021 2377.14
882.954 -11.0316 2379.44
859.799 -11.0068 2374.08
838.675 -11.0074 2374.2
817.172 -11.0028 2373.23
796.906 -11.0152 2375.89
774.375 -10.996 2371.76
755.19 -11.0247 2377.94
734.678 -11.035 2380.17
712.646 -11.0225 2377.46
691.17 -11.0181 2376.51
667.223 -10.9727 2366.72
647.344 -10.9934 2371.2
626.326 -10.9956 2371.67
606.495 -11.0195 2376.82
583.666 -10.9887 2370.17
562.988 -10.9975 2372.08
538.677 -10.9333 2358.23
520.994 -11.004 2373.47
498.277 -10.9697 2366.08
475.651 -10.9345 2358.49
456.34 -10.9758 2367.39
435.939 -10.9936 2371.24
413.373 -10.9559 2363.09
393.047 -10.9766 2367.57
371.374 -10.96 2363.98
350.031 -10.9516 2362.18
328.556 -10.9378 2359.21
307.109 -10.9232 2356.04
285.696 -10.9076 2352.69
265.216 -10.9281 2357.1
243.918 -10.9154 2354.37
222.273 -10.8835 2347.48
202.444 -10.943 2360.31
180.841 -10.9092 2353.04
159.016 -10.8515 2340.58
138.52 -10.8807 2346.89
117.653 -10.886 2348.03
96.9219 -10.909 2352.98
76.0002 -10.9172 2354.75
54.9726 -10.9106 2353.33
33.9098 -10.8846 2347.73
13.0232 -10.9227 2355.94
-7.98883 -10.9321 2357.96
-29.0469 -10.9452 2360.8
-49.8333 -10.888 2348.45
-71.0868 -10.9364 2358.9
-91.8949 -10.9099 2353.18
-112.592 -10.8825 2347.28
-133.231 -10.8589 2342.19
-154.752 -10.9039 2351.89
-175.09 -10.8648 2343.44
-196.596 -10.8987 2350.77
-217.386 -10.8902 2348.94
-238.023 -10.8763 2345.93
-259.246 -10.8892 2348.71
-280.496 -10.9012 2351.3
-301.132 -10.8894 2348.75
-321.699 -10.8767 2346.02
-341.614 -10.8449 2339.16
-363.526 -10.8765 2345.98
-384.557 -10.8797 2346.67
-406.08 -10.8959 2350.15
-428.704 -10.9385 2359.34
-447.895 -10.8936 2349.67
-467.472 -10.8617 2342.79
-488.528 -10.8655 2343.6
-511.685 -10.9137 2354.01
-532.774 -10.9158 2354.45
-551.769 -10.8764 2345.96
-572.952 -10.8815 2347.05
-593.621 -10.8768 2346.04
-616.257 -10.9072 2352.6
-640.527 -10.9636 2364.76
-656.6 -10.8806 2346.85
-675.938 -10.8551 2341.36
-699.131 -10.8912 2349.15
-718.008 -10.8599 2342.4
-745.45 -10.9563 2363.19
-764.539 -10.928 2357.08
-782.531 -10.8859 2348.01
-803.886 -10.8916 2349.24
-822.891 -10.866 2343.71
-847.851 -10.9184 2355
-870.859 -10.9436 2360.45
-891.777 -10.9421 2360.12
-906.501 -10.8663 2343.78
-929.012 -10.8852 2347.86
-949.654 -10.8819 2347.14
-967.935 -10.8522 2340.74
-994.623 -10.9161 2354.52
-1014.73 -10.9065 2352.46
-1040.79 -10.9601 2364.01
-1058.76 -10.9281 2357.11
-1074.92 -10.8789 2346.49
-1095.08 -10.8714 2344.87
-1125.48 -10.9638 2364.81
-1140.4 -10.9049 2352.1
-1167.03 -10.958 2363.56
-1186.13 -10.9398 2359.63
-1190.53 -10.7891 2327.12
-1220.28 -10.8692 2344.41
-1243.19 -10.8868 2348.19
-1270.83 -10.9445 2360.64
-1313.46 -11.1274 2400.08
-1310.87 -10.9275 2356.97
-1344.54 -11.0313 2379.36
1215.44 -33.2159 2450.98
1186.86 -33.0287 2437.17
1151.52 -32.6429 2408.7
1130.55 -32.6575 2409.78
1108.25 -32.6335 2408.01
1087.57 -32.657 2409.75
1062.34 -32.5426 2401.3
1034.81 -32.351 2387.16
1012.89 -32.3309 2385.68
991.714 -32.3339 2385.9
974.242 -32.4605 2395.24
953.984 -32.4979 2398
928.554 -32.3568 2387.59
909.27 -32.4282 2392.86
883.587 -32.2694 2381.14
859.057 -32.1459 2372.03
840.613 -32.2497 2379.69
818.415 -32.2111 2376.84
803.208 -32.4528 2394.68
775.87 -32.2043 2376.34
755.74 -32.2494 2379.67
734.918 -32.2668 2380.95
710.583 -32.1263 2370.58
691.119 -32.2042 2376.33
669.886 -32.202 2376.17
648.875 -32.2107 2376.81
625.768 -32.1124 2369.55
604.224 -32.0902 2367.91
580.753 -31.9603 2358.34
563.638 -32.1837 2374.82
538.858 -31.9697 2359.03
520.097 -32.11 2369.38
500.299 -32.1954 2375.68
477.393 -32.0795 2367.13
453.654 -31.8943 2353.46
435.543 -32.106 2369.08
413.34 -32.0223 2362.91
392.034 -32.0028 2361.47
369.483 -31.8737 2351.94
348.244 -31.8491 2350.13
328.667 -31.983 2360.01
307.472 -31.967 2358.83
286.999 -32.0293 2363.42
265.306 -31.9545 2357.91
244.723 -32.0119 2362.14
222.35 -31.8241 2348.28
201.745 -31.8765 2352.15
181.44 -31.994 2360.82
159.545 -31.8253 2348.37
138.627 -31.8297 2348.7
117.993 -31.9128 2354.83
96.7083 -31.8175 2347.79
75.9941 -31.9091 2354.56
55.2484 -32.0525 2365.14
34.1092 -32.0037 2361.54
13.0719 -32.0472 2364.75
-7.97802 -31.912 2354.77
-28.9707 -31.9098 2354.61
-49.9778 -31.9186 2355.25
-71.1112 -31.979 2359.71
-92.0045 -31.9285 2355.99
-112.823 -31.8756 2352.08
-134.185 -31.9689 2358.97
-154.411 -31.8028 2346.71
-175.821 -31.8911 2353.23
-196.664 -31.8687 2351.58
-217.645 -31.8709 2351.74
-237.903 -31.7762 2344.75
-258.677 -31.76 2343.55
-280.355 -31.849 2350.12
-300.346 -31.7472 2342.61
-321.538 -31.7775 2344.84
-343.032 -31.8321 2348.87
-363.191 -31.7635 2343.81
-385.173 -31.8533 2350.44
-405.707 -31.8202 2347.99
-426.167 -31.7848 2345.38
-447.485 -31.8137 2347.52
-466.262 -31.6675 2336.73
-489.511 -31.8245 2348.31
-510.796 -31.8462 2349.91
-531.85 -31.8523 2350.37
-553.329 -31.8825 2352.59
-573.146 -31.8182 2347.85
-593.086 -31.765 2343.92
-615.957 -31.8671 2351.46
-635.25 -31.7834 2345.28
-655.743 -31.7632 2343.79
-677.551 -31.806 2346.95
-698.509 -31.8075 2347.06
-720.006 -31.8327 2348.92
-739.379 -31.7653 2343.94
-759.238 -31.7219 2340.74
-781.841 -31.7924 2345.94
-801.562 -31.745 2342.45
-822.831 -31.7599 2343.54
-846.436 -31.8619 2351.07
-869.759 -31.9486 2357.47
-889.946 -31.9188 2355.27
-910.766 -31.9125 2354.81
-926.74 -31.7405 2342.12
-955.588 -32.0074 2361.81
-976.274 -31.9952 2360.91
-995.333 -31.9313 2356.2
-1007.13 -31.6421 2334.85
-1032.26 -31.7746 2344.63
-1055.42 -31.8426 2349.65
-1075.68 -31.8223 2348.15
-1082.32 -31.4074 2317.54
-1115.52 -31.7646 2343.89
-1143.81 -31.9713 2359.14
-1149.69 -31.5552 2328.44
-1178.42 -31.77 2344.29
-1193.19 -31.6077 2332.32
-1208.2 -31.457 2321.2
-1242.17 -31.7969 2346.28
-1267.43 -31.9061 2354.33
-1268.25 -31.4067 2317.48
-1279.69 -31.1819 2300.89
-1322.82 -31.7242 2340.91
1232.16 -55.826 2484.7
1196.34 -55.1953 2456.63
1188.02 -55.834 2485.06
1139.32 -54.5626 2428.47
1118.14 -54.5855 2429.49
1093.59 -54.4418 2423.09
1068.27 -54.2531 2414.69
1048.19 -54.328 2418.03
1022.91 -54.1315 2409.28
999.253 -54.0137 2404.04
979.005 -54.0792 2406.95
955.7 -53.975 2402.32
927.7 -53.5948 2385.39
911.628 -53.902 2399.07
885.201 -53.597 2385.49
865.403 -53.6882 2389.55
838.828 -53.353 2374.63
827.086 -53.9683 2402.02
798.323 -53.4762 2380.11
778.86 -53.5972 2385.5
758.051 -53.6297 2386.95
739.823 -53.852 2396.84
721.387 -54.0718 2406.63
694.646 -53.6636 2388.46
671.957 -53.5526 2383.51
650.358 -53.524 2382.24
626.695 -53.3178 2373.06
607.84 -53.5205 2382.09
582.577 -53.1533 2365.74
561.936 -53.1961 2367.65
543.451 -53.4542 2379.14
517.874 -53.0074 2359.25
497.75 -53.1046 2363.57
477.715 -53.2202 2368.72
456.99 -53.2662 2370.77
431.86 -52.7782 2349.05
412.759 -53.0149 2359.58
391.317 -52.9603 2357.15
370.046 -52.9237 2355.52
349.655 -53.0163 2359.65
329.857 -53.2163 2368.55
307.036 -52.9228 2355.48
285.869 -52.8921 2354.12
265.264 -52.9688 2357.53
245.199 -53.1757 2366.74
223.163 -52.9538 2356.87
201.627 -52.8171 2350.78
180.798 -52.8551 2352.47
159.52 -52.7546 2348
139.017 -52.9188 2355.31
117.624 -52.7426 2347.46
96.6517 -52.7191 2346.42
75.9497 -52.8711 2353.18
54.7726 -52.682 2344.77
34.046 -52.9604 2357.16
13.0919 -53.2122 2368.37
-7.99368 -53.0106 2359.39
-29.0399 -53.0293 2360.23
-49.7789 -52.707 2345.88
-70.7986 -52.7848 2349.34
-91.8338 -52.8359 2351.61
-112.757 -52.8154 2350.7
-133.369 -52.6787 2344.62
-154.124 -52.6276 2342.35
-175.42 -52.7516 2347.87
-196.049 -52.6699 2344.23
-216.873 -52.6512 2343.4
-238.067 -52.7179 2346.36
-258.197 -52.5571 2339.21
-279.719 -52.6825 2344.79
-301.315 -52.8035 2350.17
-322.438 -52.8312 2351.41
-341.823 -52.5881 2340.59
-363.134 -52.6524 2343.45
-383.658 -52.6016 2341.19
-404.623 -52.6135 2341.72
-424.85 -52.533 2338.13
-447.603 -52.7577 2348.14
-467.168 -52.6034 2341.27
-488.619 -52.6656 2344.04
-509.232 -52.6359 2342.72
-530.445 -52.6683 2344.16
-552.788 -52.8061 2350.29
-574.007 -52.8305 2351.38
-594.468 -52.7857 2349.38
-618.651 -53.0634 2361.74
-638.03 -52.9242 2355.55
-658.878 -52.9118 2354.99
-680.779 -52.9822 2358.13
-703.539 -53.1132 2363.96
-725.467 -53.1756 2366.74
-746.79 -53.1914 2367.44
-772.701 -53.5241 2382.25
-783.941 -52.85 2352.24
-812.776 -53.3662 2375.22
-832.981 -53.304 2372.45
-854.443 -53.3234 2373.31
-869.982 -52.981 2358.08
-903.25 -53.7091 2390.48
-911.721 -52.963 2357.27
-940.221 -53.388 2376.19
-959.206 -53.2658 2370.75
-982.253 -53.3695 2375.37
-1008.81 -53.6558 2388.11
-1027.98 -53.5453 2383.19
-1043.8 -53.268 2370.85
-1061.01 -53.0716 2362.11
-1084.28 -53.1798 2366.92
-1107.13 -53.2641 2370.68
-1142.01 -53.913 2399.55
-1156.75 -53.6045 2385.82
-1174.77 -53.4565 2379.24
-1189.49 -53.1663 2366.32
-1201.24 -52.7556 2348.04
-1233.9 -53.2617 2370.57
-1252.78 -53.166 2366.31
-1254.95 -52.3761 2331.15
-1331.93 -54.6834 2433.84
-1393.25 -56.2837 2505.07
0 0 0
1418.89 -89.7966 2861.24
1430.69 -92.2009 2937.86
1356.37 -89.0417 2837.19
1284.72 -85.941 2738.39
1200.24 -81.8454 2607.89
1201.52 -83.5507 2662.23
1152.58 -81.7628 2605.26
1100.05 -79.6419 2537.68
1064.9 -78.7155 2508.16
1049.69 -79.256 2525.38
1041.32 -80.3474 2560.16
973.607 -76.8063 2447.33
952.144 -76.8351 2448.24
956.884 -79.0294 2518.16
944.131 -79.8497 2544.3
916.956 -79.4605 2531.9
881.93 -78.3542 2496.65
879.953 -80.2029 2555.56
857.273 -80.2127 2555.87
807.543 -77.623 2473.35
793.889 -78.4528 2499.79
773.859 -78.6823 2507.11
767.435 -80.3501 2560.25
723.523 -78.0748 2487.75
693.505 -77.2023 2459.95
650.74 -74.8074 2383.64
628.852 -74.7319 2381.23
607.703 -74.742 2381.55
585.791 -74.6556 2378.8
562.039 -74.3193 2368.08
539.32 -74.0987 2361.05
519.898 -74.3315 2368.47
501.137 -74.6826 2379.66
477.209 -74.2607 2366.22
455.182 -74.1092 2361.39
434.832 -74.2293 2365.22
412.835 -74.0662 2360.02
391.717 -74.0518 2359.56
371.045 -74.1247 2361.88
350.159 -74.1612 2363.05
328.676 -74.0679 2360.07
306.705 -73.8442 2352.95
287.488 -74.2995 2367.45
264.307 -73.7213 2349.03
244.111 -73.9475 2356.23
223.675 -74.1371 2362.28
202.262 -74.0087 2358.19
181.061 -73.9368 2355.9
159.549 -73.7026 2348.43
138.748 -73.7754 2350.75
117.646 -73.6859 2347.9
96.9987 -73.9038 2354.84
75.7702 -73.6772 2347.62
54.9462 -73.8209 2352.2
33.9512 -73.7705 2350.6
13.0224 -73.9339 2355.8
-7.98838 -73.9974 2357.83
-28.9837 -73.9295 2355.66
-49.979 -73.9185 2355.31
-70.9924 -73.9329 2355.77
-91.7338 -73.7221 2349.05
-112.682 -73.7249 2349.14
-133.962 -73.9098 2355.04
-155.006 -73.9322 2355.75
-175.527 -73.7298 2349.3
-196.169 -73.6156 2345.66
-217.742 -73.8394 2352.79
-237.91 -73.589 2344.81
-259.781 -73.8633 2353.55
-279.771 -73.6019 2345.22
-301.625 -73.8332 2352.59
-322.77 -73.8718 2353.82
-341.742 -73.4391 2340.04
-365.804 -74.0869 2360.68
-384.053 -73.551 2343.6
-407.422 -74.0002 2357.92
-427.968 -73.9179 2355.29
-447.5 -73.6763 2347.59
-467.843 -73.5838 2344.65
-489.731 -73.7319 2349.37
-512.512 -73.9968 2357.81
-528.118 -73.2457 2333.87
-551.746 -73.622 2345.86
-572.692 -73.6259 2345.99
-597.031 -74.0503 2359.51
-618.259 -74.0733 2360.24
-639.194 -74.0607 2359.84
-657.384 -73.741 2349.66
-679.796 -73.9 2354.72
-701.388 -73.9631 2356.73
-720.621 -73.7809 2350.93
-741.215 -73.7444 2349.76
-763.589 -73.8822 2354.16
-785.352 -73.955 2356.48
-805.805 -73.904 2354.85
-828.167 -74.0261 2358.74
-847.49 -73.8773 2354
-869.106 -73.9307 2355.7
-892.108 -74.0967 2360.99
-914.775 -74.228 2365.17
-929.361 -73.7123 2348.74
-953.385 -73.9514 2356.36
-973.649 -73.8949 2354.56
-1009 -74.9614 2388.54
-1024.21 -74.5191 2374.45
-1043.19 -74.3625 2369.46
-1055.47 -73.7449 2349.78
-1086.98 -74.4679 2372.82
-1104.8 -74.2439 2365.68
-1128.47 -74.4141 2371.11
-1151.73 -74.551 2375.47
-1166.58 -74.1487 2362.65
-1200.49 -74.9506 2388.2
-1194.18 -73.2574 2334.25
-1232.74 -74.3276 2368.35
-1265.64 -75.026 2390.6
-1292.15 -75.3289 2400.25
-1292.33 -74.1124 2361.49
