# .PCD v0.7 - Point Cloud Data file format
VERSION 0.7
FIELDS x y z
SIZE 4 4 4
TYPE F F F
COUNT 1 1 1
WIDTH 1976
HEIGHT 1
VIEWPOINT 0 0 0 1 0 0 0
POINTS 1976
DATA ascii
-820.567 405.908 2337.09
-846.121 408.183 2350.2
-864.997 407.205 2344.57
-888.965 408.614 2352.67
-906.24 406.952 2343.11
-928.761 407.667 2347.22
-950.549 408.036 2349.35
-969.673 407.271 2344.94
-990.211 407.119 2344.07
-1012.63 407.733 2347.6
-1031.87 407.065 2343.76
-1057.06 408.725 2353.32
-1072.05 406.454 2340.24
-1096.41 407.752 2347.71
-1118.27 408.09 2349.66
-1140.53 408.559 2352.36
-1154.89 406.234 2338.97
-1179.21 407.432 2345.87
-1207.17 409.824 2359.64
-1222.49 407.915 2348.65
-1264.42 414.8 2388.29
-1255.76 405.138 2332.66
-1307.5 414.957 2389.2
-1310.94 409.379 2357.08
-1358.14 417.428 2403.43
1231.5 409.173 2483.38
1181.06 399.599 2425.27
1155.73 398.319 2417.5
1136.33 399.075 2422.09
1108.53 396.855 2408.62
1079.25 394.004 2391.32
1060.57 394.988 2397.29
1034.66 393.266 2386.83
1017.36 394.81 2396.2
991.133 392.881 2384.5
971.732 393.635 2389.07
949.284 393.159 2386.19
924.318 391.596 2376.7
903.66 391.826 2378.1
881.896 391.577 2376.58
859.767 391.15 2373.99
834.995 389.468 2363.78
815.483 390.216 2368.32
799.619 392.795 2383.98
774.254 390.721 2371.39
753.53 390.939 2372.71
735.069 392.377 2381.44
713.299 392.081 2379.64
694.547 393.477 2388.12
669.983 391.565 2376.51
649.989 392.286 2380.89
625.089 389.995 2366.98
603.311 389.559 2364.34
582.01 389.411 2363.44
561.369 389.71 2365.26
541.319 390.459 2369.8
518.615 389.277 2362.63
498.033 389.655 2364.92
476.987 389.687 2365.11
452.916 387.136 2349.63
433.185 388.228 2356.26
413.991 389.936 2366.63
389.9 386.968 2348.61
369.312 387.337 2350.85
348.08 387.035 2349.02
327.401 387.347 2350.91
306.793 387.793 2353.62
285.402 387.242 2350.27
265.485 388.761 2359.5
243.455 387.181 2349.91
222.321 386.864 2347.98
201.965 387.975 2354.72
180.569 387.112 2349.49
159.921 387.841 2353.91
138.604 386.918 2348.31
117.426 386.126 2343.5
96.7321 386.929 2348.37
75.6913 386.402 2345.18
54.7722 386.333 2344.76
33.9294 387.046 2349.09
12.9428 385.779 2341.4
-7.94281 386.271 2344.38
-28.8065 385.757 2341.26
-49.862 387.163 2349.8
-70.6777 386.427 2345.33
-91.4838 385.986 2342.65
-112.754 387.302 2350.64
-133.651 387.127 2349.57
-153.74 384.974 2336.51
-175.054 386.038 2342.97
-196.139 386.422 2345.3
-217.157 386.615 2346.47
-236.983 384.837 2335.68
-259.305 387.073 2349.25
-278.689 384.916 2336.16
-299.703 385.154 2337.6
-321.657 386.49 2345.71
-341.303 385.059 2337.03
-363.339 386.335 2344.77
-382.13 384.209 2331.87
-404.029 385.266 2338.28
-424.948 385.331 2338.68
-445.658 385.208 2337.93
-467.48 386.016 2342.83
-486.933 384.881 2335.95
-509.589 386.267 2344.36
-530.388 386.193 2343.91
-550.916 385.933 2342.33
-570.44 385.016 2336.76
-595.643 387.861 2354.03
-617.09 388.149 2355.78
-635.94 386.839 2347.83
-654.348 385.352 2338.81
-678.042 386.974 2348.65
-696.497 385.598 2340.3
-717.085 385.449 2339.39
-739.096 386.051 2343.05
-758.679 385.387 2339.02
-780.647 385.938 2342.36
-800.699 385.537 2339.93
-822.624 386.036 2342.95
-839.86 384.364 2332.81
-862.014 384.969 2336.48
-886.268 386.462 2345.54
-905.262 385.644 2340.58
-922.67 384.203 2331.83
-940.259 382.9 2323.92
-970.138 386.549 2346.07
-985.678 384.452 2333.34
-1004.89 383.842 2329.64
-1028.36 384.856 2335.79
-1051.47 385.693 2340.87
-1077.07 387.392 2351.19
-1086.86 383.449 2327.26
-1118.76 387.312 2350.7
-1128.51 383.502 2327.58
-1149.25 383.499 2327.56
-1174.38 384.933 2336.26
-1199.12 386.193 2343.9
-1223.91 387.424 2351.38
-1234.39 384.162 2331.58
-1264.71 387.078 2349.28
-1291.41 388.81 2359.79
-1310.49 388.232 2356.28
-1346.51 392.61 2382.85
1222.77 384.287 2465.77
1173.73 375.628 2410.21
1159.61 378.03 2425.62
1124.59 373.582 2397.08
1106.91 374.832 2405.1
1082.54 373.82 2398.61
1059.01 373.064 2393.76
1037.06 372.848 2392.37
1021.66 375.024 2406.33
995.354 373.205 2394.66
967.678 370.781 2379.11
952.625 373.193 2394.59
925.8 370.999 2380.51
905.819 371.509 2383.78
880.57 369.831 2373.01
861.504 370.731 2378.79
841.965 371.468 2383.51
816.18 369.415 2370.35
793.388 368.645 2365.4
774.004 369.459 2370.62
755.385 370.694 2378.55
736.59 371.912 2386.37
711.658 370.011 2374.17
690.194 369.853 2373.15
668.166 369.372 2370.07
646.667 369.162 2368.72
625.148 368.926 2367.2
605.569 369.858 2373.19
584.667 370.021 2374.23
562.339 369.259 2369.34
540.936 369.07 2368.13
516.762 366.897 2354.19
497.884 368.459 2364.21
477.627 369.094 2368.29
457.267 369.705 2372.21
434.128 368.019 2361.38
413.189 368.121 2362.04
391.077 367.133 2355.7
370.275 367.333 2356.98
349.28 367.353 2357.11
328.394 367.499 2358.05
305.681 365.479 2345.09
285.08 365.874 2347.62
264.194 365.935 2348.01
243.485 366.276 2350.2
222.535 366.282 2350.24
201.569 366.261 2350.1
180.743 366.519 2351.76
160.143 367.363 2357.18
139.146 367.412 2357.49
117.589 365.74 2346.76
96.9075 366.654 2352.63
76.0517 367.233 2356.34
55.1024 367.63 2358.89
33.9481 366.305 2350.38
13.0045 366.644 2352.57
-7.95054 365.724 2346.66
-28.8467 365.391 2344.52
-49.9524 366.877 2354.06
-70.6571 365.41 2344.64
-91.8811 366.685 2352.83
-112.768 366.393 2350.95
-133.5 365.765 2346.92
-153.824 364.341 2337.78
-175.739 366.576 2352.13
-195.999 365.251 2343.62
-217.549 366.353 2350.7
-238.008 365.587 2345.78
-258.687 365.254 2343.64
-280.594 366.576 2352.13
-300.114 364.812 2340.81
-320.621 364.398 2338.15
-342.197 365.177 2343.15
-362.926 365.014 2342.1
-385.047 366.192 2349.66
-403.903 364.304 2337.55
-426.229 365.578 2345.72
-447.924 366.216 2349.82
-467.914 365.466 2345.01
-490.409 366.653 2352.62
-509.848 365.551 2345.55
-531.311 365.93 2347.98
-552.776 366.282 2350.24
-572.599 365.56 2345.6
-591.817 364.516 2338.91
-615.892 366.433 2351.21
-631.856 363.556 2332.75
-654.663 364.675 2339.93
-678.093 366.061 2348.82
-699.366 366.235 2349.94
-718.001 365.057 2342.38
-739.738 365.478 2345.08
-760.859 365.581 2345.74
-781.942 365.659 2346.24
-798.818 363.818 2334.43
-824.304 365.892 2347.74
-841.905 364.45 2338.49
-867.185 366.322 2350.49
-885.255 365.131 2342.85
-911.718 367.378 2357.27
-932.525 367.295 2356.74
-945.101 364.045 2335.89
-966.758 364.358 2337.9
-993.782 366.638 2352.52
-1011.56 365.483 2345.12
-1030.77 364.881 2341.25
-1049.86 364.262 2337.28
-1073.78 365.31 2344.01
-1099.84 367.032 2355.05
-1120.89 367.051 2355.17
-1126.77 362.189 2323.98
-1154.93 364.54 2339.06
-1174.36 364.097 2336.22
-1199.1 365.288 2343.86
-1218.4 364.81 2340.79
-1242.69 365.818 2347.26
-1247.77 361.228 2317.81
-1285.66 366.136 2349.3
-1296 363.163 2330.23
-1326.98 365.978 2348.29
1194.56 353.944 2408.88
1177.59 355.304 2418.14
1163.43 357.576 2433.6
1147.29 359.318 2445.45
1105.22 352.849 2401.43
1086.99 353.885 2408.48
1056.57 350.913 2388.25
1041.77 353.113 2403.22
1020.1 353.028 2402.65
1001.42 353.999 2409.26
971.391 350.91 2388.23
945.657 349.27 2377.07
930.815 351.67 2393.4
907.219 350.797 2387.46
886.075 350.853 2387.85
863.186 350.205 2383.43
843.285 350.766 2387.25
820.693 350.208 2383.45
800.631 350.728 2386.99
778.618 350.399 2384.76
754.794 349.214 2376.69
734.851 349.808 2380.73
713.943 349.964 2381.79
691.865 349.538 2378.9
669.791 349.088 2375.83
648.767 349.173 2376.41
626.679 348.672 2373
606.321 349.132 2376.13
587.29 350.418 2384.88
563.728 348.995 2375.2
543.6 349.669 2379.79
520.385 348.332 2370.69
499.941 348.816 2373.98
477.451 347.851 2367.41
456.726 348.142 2369.4
433.788 346.694 2359.54
413.548 347.363 2364.09
391.904 346.862 2360.68
371.213 347.196 2362.95
349.876 346.929 2361.14
328.137 346.204 2356.2
308.508 347.757 2366.78
285.928 345.969 2354.6
265.313 346.462 2357.96
245.027 347.508 2365.08
223.293 346.504 2358.24
201.664 345.471 2351.21
181.056 346.149 2355.83
160.086 346.222 2356.33
138.804 345.542 2351.7
118.19 346.578 2358.75
96.9945 345.989 2354.74
75.9924 345.955 2354.51
54.9441 345.603 2352.11
34.193 347.84 2367.34
13.0217 346.126 2355.67
-8.00797 347.292 2363.61
-28.9578 345.815 2353.55
-49.8084 344.892 2347.27
-70.9589 345.977 2354.66
-92.0408 346.309 2356.92
-112.822 345.597 2352.07
-134.069 346.31 2356.92
-154.351 344.674 2345.79
-175.601 345.334 2350.28
-196.585 345.387 2350.64
-217.651 345.558 2351.81
-238.12 344.834 2346.88
-259.567 345.53 2351.62
-280.608 345.622 2352.24
-300.756 344.677 2345.81
-321.977 345.006 2348.05
-342.64 344.732 2346.18
-363.091 344.289 2343.17
-384.742 344.97 2347.8
-404.927 344.334 2343.48
-427.305 345.534 2351.65
-447.198 344.706 2346.01
-467.347 344.141 2342.16
-489.01 344.692 2345.91
-510.491 345.074 2348.51
-532.416 345.714 2352.87
-556.868 347.884 2367.64
-572.843 344.794 2346.61
-591.823 343.666 2338.93
-615.65 345.334 2350.28
-641.694 348.095 2369.07
-661.335 347.317 2363.78
-679.47 345.82 2353.59
-698.521 344.866 2347.1
-721.191 345.702 2352.79
-740.628 344.984 2347.9
-762.687 345.494 2351.37
-786.944 346.946 2361.25
-806.178 346.165 2355.94
-822.65 344.268 2343.03
-849.938 346.879 2360.8
-866.481 345.085 2348.59
-888.381 345.458 2351.13
-914.556 347.438 2364.6
-929.947 345.325 2350.22
-946.177 343.609 2338.55
-970.502 344.844 2346.95
-991.429 344.845 2346.95
-1011.91 344.692 2345.92
-1039.1 346.787 2360.17
-1057.92 346.06 2355.22
-1075.37 344.921 2347.47
-1095.16 344.564 2345.04
-1129.77 348.794 2373.83
-1140.95 345.768 2353.24
-1165.82 346.925 2361.11
-1184.95 346.364 2357.3
-1208.04 346.958 2361.33
-1224.25 345.591 2352.03
-1253.26 347.823 2367.23
-1278.67 348.996 2375.21
-1309.36 351.551 2392.59
-1319.98 348.721 2373.33
-1373.7 357.189 2430.96
1198.4 333.536 2416.63
1186.6 336.299 2436.64
1166.32 336.715 2439.66
1136.66 334.389 2422.81
1104.29 331.158 2399.4
1085.67 332.007 2405.55
1066.1 332.594 2409.8
1036.55 330.025 2391.19
1007.61 327.547 2373.23
992.971 329.712 2388.92
967.574 328.322 2378.85
948.144 328.939 2383.32
924.635 328.137 2377.51
908.561 329.998 2391
882.562 328.257 2378.38
863.464 329.06 2384.2
837.616 327.266 2371.2
820.64 328.936 2383.3
797.43 328.129 2377.45
775.188 327.687 2374.25
755.65 328.396 2379.39
730.425 326.603 2366.39
711.344 327.532 2373.12
686.847 325.947 2361.64
672.179 329.074 2384.3
648.998 328.102 2377.26
624.373 326.31 2364.27
603.845 326.608 2366.43
583.477 327.018 2369.4
564.394 328.205 2378
542.037 327.507 2372.95
521.216 327.719 2374.48
497.883 326.301 2364.21
475.868 325.66 2359.56
454.836 325.665 2359.6
432.698 324.838 2353.61
412.511 325.468 2358.17
392.054 325.94 2361.59
368.896 324.093 2348.21
348.415 324.516 2351.28
327.582 324.646 2352.21
306.709 324.751 2352.98
285.802 324.832 2353.56
265.196 325.296 2356.92
243.9 324.92 2354.2
223.289 325.471 2358.2
201.914 324.909 2354.12
181.129 325.275 2356.77
159.948 324.935 2354.31
138.568 324.022 2347.7
118.039 325.133 2355.74
96.8297 324.443 2350.74
75.5438 323.044 2340.61
54.7811 323.669 2345.14
33.835 323.312 2342.55
12.9722 323.887 2346.72
-7.96425 324.437 2350.7
-28.872 323.868 2346.58
-49.8284 324.094 2348.22
-70.5698 323.201 2341.75
-91.846 324.606 2351.93
-112.583 323.937 2347.08
-133.785 324.608 2351.94
-154.802 324.707 2352.66
-175.302 323.827 2346.28
-196.168 323.74 2345.65
-217.007 323.629 2344.85
-238.913 324.989 2354.7
-258.8 323.604 2344.67
-278.606 322.333 2335.46
-300.243 323.21 2341.81
-320.891 322.977 2340.12
-343.201 324.344 2350.03
-361.712 322.17 2334.27
-382.966 322.541 2336.96
-404.91 323.427 2343.38
-426.581 324.017 2347.66
-446.622 323.373 2342.99
-467.907 323.646 2344.97
-488.786 323.627 2344.83
-510.468 324.12 2348.4
-530.86 323.787 2345.99
-548.223 321.702 2330.88
-573.048 323.987 2347.44
-591.545 322.661 2337.83
-619.634 326.478 2365.49
-636.997 324.579 2351.73
-655.69 323.457 2343.6
-677.503 323.896 2346.78
-699.039 324.18 2348.84
-719.399 323.918 2346.94
-738.188 322.983 2340.17
-758.042 322.553 2337.05
-779.991 323.014 2340.39
-805.152 324.746 2352.94
-823.893 323.866 2346.57
-843.823 323.486 2343.81
-864 323.217 2341.86
-886.197 323.698 2345.35
-907.678 323.902 2346.82
-929.857 324.339 2349.99
-950.541 324.248 2349.33
-965.094 322.114 2333.87
-987.076 322.497 2336.65
-1011.79 323.74 2345.65
-1028.59 322.451 2336.31
-1052.11 323.276 2342.29
-1071.93 322.957 2339.98
-1092.93 322.995 2340.26
-1108.75 321.532 2329.66
-1136.91 323.637 2344.9
-1163.48 325.219 2356.37
-1188.36 326.284 2364.08
-1191.6 321.471 2329.21
-1213.54 321.781 2331.46
-1237.77 322.678 2337.96
-1289.79 330.671 2395.87
-1280.59 322.964 2340.03
-1318.82 327.275 2371.26
-1333.98 325.812 2360.66
1212.33 315.616 2444.72
1187.3 314.757 2438.06
1168.72 315.611 2444.68
1127.21 310.186 2402.66
1098.72 308.202 2387.29
1083.87 310.045 2401.56
1061.12 309.655 2398.54
1039.94 309.716 2399.02
1017.92 309.524 2397.53
995.108 309.077 2394.07
968.922 307.54 2382.16
951.306 308.716 2391.27
930.975 309.044 2393.81
902.792 306.721 2375.81
880.709 306.407 2373.39
865.373 308.484 2389.47
840.142 307.048 2378.35
820.208 307.525 2382.04
800.48 308.106 2386.55
778.165 307.696 2383.37
752.249 305.799 2368.68
733.256 306.688 2375.56
711.255 306.335 2372.82
694.795 308.419 2388.97
669.947 306.794 2376.38
647.876 306.376 2373.15
626.324 306.184 2371.66
605.245 306.218 2371.92
587.206 307.847 2384.54
562.5 305.973 2370.02
541.315 305.942 2369.78
519.246 305.389 2365.5
497.215 304.813 2361.04
475.03 304.087 2355.41
454.411 304.342 2357.39
434.803 305.332 2365.06
412.296 304.284 2356.94
391.039 304.095 2355.48
370.242 304.262 2356.77
349.396 304.407 2357.89
328.779 304.783 2360.81
306.293 303.36 2349.78
287.088 305.215 2364.15
264.615 303.616 2351.76
243.365 303.263 2349.04
222.987 304.035 2355.01
201.725 303.635 2351.92
180.807 303.723 2352.59
159.463 303.021 2347.15
138.846 303.7 2352.42
118.227 304.612 2359.48
96.8204 303.455 2350.52
76.08 304.32 2357.22
55.0537 304.266 2356.8
33.9748 303.677 2352.24
13.0258 304.215 2356.41
-7.97357 303.834 2353.45
-28.918 303.429 2350.32
-49.7184 302.488 2343.03
-70.7121 302.932 2346.47
-92.0308 304.248 2356.66
-112.999 304.132 2355.76
-133.716 303.481 2350.72
-154.201 302.552 2343.52
-175.358 303.005 2347.03
-196.231 302.924 2346.4
-217.076 302.819 2345.59
-238.189 303.073 2347.56
-258.337 302.159 2340.48
-279.867 302.876 2346.03
-300.21 302.298 2341.56
-321.798 302.967 2346.74
-341.874 302.219 2340.94
-364.404 303.6 2351.65
-383.563 302.176 2340.61
-404.526 302.247 2341.16
-426.532 303.051 2347.39
-446.57 302.448 2342.72
-469.016 303.456 2350.53
-488.727 302.685 2344.55
-511.039 303.521 2351.03
-530.576 302.708 2344.74
-552.239 303.124 2347.96
-572.505 302.771 2345.22
-593.413 302.77 2345.22
-614.028 302.625 2344.09
-637.174 303.696 2352.38
-655.868 302.644 2344.24
-679.062 303.669 2352.18
-698.942 303.196 2348.51
-719.588 303.072 2347.56
-739.572 302.685 2344.56
-762.827 303.621 2351.81
-782.383 303.074 2347.57
-802.463 302.753 2345.08
-826.726 303.987 2354.64
-843.354 302.421 2342.51
-864.549 302.529 2343.35
-883.247 301.779 2337.54
-907.53 302.928 2346.44
-930.07 303.457 2350.53
-947.775 302.419 2342.5
-970.994 303.148 2348.14
-989.218 302.319 2341.72
-1015.55 303.951 2354.36
-1033.21 302.973 2346.79
-1051.1 302.103 2340.04
-1071.32 301.921 2338.64
-1094.82 302.654 2344.31
-1112.37 301.744 2337.27
-1140.59 303.71 2352.5
-1160.18 303.347 2349.68
-1177.43 302.398 2342.33
-1207.64 304.752 2360.57
-1232.55 305.709 2367.98
-1247.27 304.151 2355.91
-1264.59 303.266 2349.06
-1294.63 305.413 2365.68
-1320.49 306.52 2374.26
-1361.07 310.956 2408.62
1210.31 293.329 2440.64
1196.18 295.214 2456.32
1175.77 295.587 2459.42
1121.47 287.294 2390.42
1108.85 289.565 2409.32
1082 288.134 2397.41
1056.07 286.896 2387.11
1037.35 287.607 2393.03
1011.49 286.327 2382.38
992.988 287.119 2388.96
978.822 289.227 2406.5
942.288 284.672 2368.6
930.782 287.642 2393.32
906.481 286.705 2385.52
885.707 286.865 2386.85
868.243 288.132 2397.39
840.299 285.897 2378.8
817.13 285.213 2373.11
797.793 285.865 2378.54
776.47 285.822 2378.18
753.299 285.078 2371.98
733.111 285.452 2375.09
709.973 284.665 2368.55
689.949 285.117 2372.31
668.47 284.977 2371.15
648.799 285.624 2376.53
624.936 284.407 2366.4
603.658 284.322 2365.7
584.251 285.145 2372.54
561.019 284.092 2363.78
540.994 284.645 2368.38
522.131 285.879 2378.65
499.579 285.111 2372.26
477.494 284.554 2367.63
456.395 284.561 2367.68
434.904 284.312 2365.61
414.275 284.629 2368.25
392.92 284.455 2366.8
369.25 282.491 2350.46
349.042 283.098 2355.51
327.899 282.976 2354.49
308.035 284.016 2363.14
286.68 283.733 2360.79
266.012 284.139 2364.17
243.628 282.626 2351.58
223.509 283.701 2360.53
201.944 282.973 2354.47
180.776 282.698 2352.19
160.175 283.354 2357.64
139.407 283.869 2361.92
117.759 282.455 2350.16
96.9671 282.926 2354.08
75.875 282.54 2350.87
55.253 284.279 2365.34
33.9834 282.775 2352.82
13.0236 283.158 2356.01
-7.97221 282.803 2353.05
-29.0107 283.38 2357.85
-49.9835 283.099 2355.52
-70.7895 282.32 2349.04
-92.0539 283.307 2357.25
-112.742 282.484 2350.4
-133.862 282.831 2353.29
-155.086 283.274 2356.98
-175.327 282.029 2346.62
-196.279 282.072 2346.98
-216.946 281.737 2344.18
-238.648 282.686 2352.08
-259.924 283.019 2354.85
-280.169 282.263 2348.56
-301.544 282.671 2351.96
-321.065 281.402 2341.39
-342.815 282.121 2347.38
-364.338 282.582 2351.22
-383.811 281.489 2342.13
-404.449 281.32 2340.71
-428.583 283.479 2358.68
-447.228 281.975 2346.17
-468.733 282.329 2349.11
-488.227 281.493 2342.15
-508.62 281.222 2339.9
-530.691 281.864 2345.24
-551.903 282.019 2346.53
-574.275 282.733 2352.47
-593.537 281.92 2345.7
-616.167 282.707 2352.26
-635.228 281.859 2345.2
-653.859 280.88 2337.05
-680.851 283.443 2358.38
-699.929 282.656 2351.83
-720.6 282.539 2350.86
-741.206 282.404 2349.74
-761.745 282.252 2348.47
-780.014 281.289 2340.46
-804.859 282.686 2352.08
-825.558 282.593 2351.31
-843.836 281.697 2343.85
-867.791 282.693 2352.14
-891.471 283.554 2359.31
-909.471 282.611 2351.46
-930.586 282.657 2351.84
-946.805 281.246 2340.1
-967.726 281.262 2340.24
-991.299 282.033 2346.65
-1012.55 282.124 2347.41
-1034.56 282.418 2349.86
-1054.1 282.041 2346.72
-1075.19 282.085 2347.08
-1098.75 282.764 2352.73
-1113.79 281.265 2340.26
-1141.17 282.88 2353.69
-1155.48 281.254 2340.17
-1182.93 282.829 2353.27
-1203.26 282.676 2352
-1223.05 282.405 2349.74
-1256.71 285.29 2373.75
-1262.36 281.826 2344.93
-1293.34 284.037 2363.32
-1339 289.351 2407.54
-1351.93 287.536 2392.44
1228.54 275.66 2477.41
1185.41 270.851 2434.19
1160.87 270.191 2428.25
1135.08 269.21 2419.44
1106.88 267.606 2405.02
1084.14 267.288 2402.16
1061.4 266.953 2399.16
1043.38 267.82 2406.95
1015.86 266.232 2392.68
995.379 266.459 2394.72
977.43 267.39 2403.08
957.458 267.796 2406.74
923.675 264.27 2375.04
904.816 264.949 2381.14
883.733 264.993 2381.54
863.607 265.333 2384.59
845.037 266.18 2392.21
817.875 264.295 2375.27
797.892 264.692 2378.83
777.803 265.073 2382.26
755.201 264.596 2377.97
732.914 264.205 2374.45
711.494 264.112 2373.62
687.821 263.152 2364.99
669.911 264.405 2376.26
645.224 262.978 2363.43
626.04 263.774 2370.58
606.202 264.34 2375.67
583.623 263.708 2369.99
563.397 264.132 2373.8
541.297 263.676 2369.7
518.376 262.767 2361.54
498.837 263.569 2368.74
475.996 262.619 2360.2
455.526 262.95 2363.17
435.693 263.698 2369.9
412.629 262.467 2358.84
391.193 262.196 2356.4
369.772 261.904 2353.78
349.245 262.249 2356.88
329.05 262.903 2362.75
306.673 261.784 2352.7
286.248 262.289 2357.24
265.168 262.226 2356.68
243.874 261.923 2353.95
222.517 261.489 2350.05
201.723 261.695 2351.9
180.731 261.661 2351.59
159.798 261.717 2352.1
139.08 262.194 2356.38
117.531 260.994 2345.6
97.0248 262.093 2355.48
75.7919 261.294 2348.29
55.0308 262.131 2355.82
34.0897 262.617 2360.19
12.9819 261.313 2348.47
-7.95002 261.095 2346.51
-29.1014 263.178 2365.23
-49.9922 262.144 2355.93
-70.7717 261.311 2348.45
-91.7209 261.342 2348.73
-113 262.126 2355.77
-133.264 260.68 2342.78
-154.265 260.871 2344.49
-175.505 261.372 2349
-195.318 259.868 2335.48
-216.982 260.88 2344.57
-237.283 260.219 2338.63
-259.095 261.188 2347.34
-280.215 261.367 2348.95
-301.72 261.854 2353.33
-322.331 261.554 2350.63
-344.019 262.11 2355.63
-362.722 260.458 2340.79
-383.228 260.211 2338.56
-405.019 260.817 2344.01
-425.806 260.749 2343.4
-448.412 261.748 2352.38
-468.609 261.315 2348.49
-487.284 260.107 2337.63
-508.904 260.505 2341.21
-529.669 260.452 2340.73
-553.802 261.996 2354.6
-572.705 261.043 2346.04
-592.886 260.719 2343.13
-614.488 261.021 2345.85
-637.391 261.838 2353.18
-656.084 260.928 2345.01
-677.907 261.281 2348.18
-699.167 261.402 2349.27
-717.483 260.448 2340.69
-739.5 260.853 2344.33
-757.232 259.765 2334.55
-780.415 260.556 2341.66
-804.95 261.745 2352.35
-823.672 261.032 2345.94
-846.283 261.555 2350.65
-867.538 261.645 2351.45
-886.993 261.2 2347.46
-908.485 261.362 2348.91
-931.407 261.919 2353.91
-952.859 262.047 2355.06
-968.949 260.726 2343.19
-995.255 262.152 2356.01
-1013.42 261.42 2349.43
-1035.04 261.59 2350.95
-1057.44 261.946 2354.15
-1069.47 259.769 2334.59
-1106.41 263.612 2369.13
-1119.85 261.816 2352.99
-1135.6 260.617 2342.21
-1158.63 261.1 2346.55
-1183.89 262.061 2355.19
-1198.34 260.637 2342.39
-1228.63 262.647 2360.46
-1254.92 263.75 2370.36
-1272.33 262.979 2363.44
-1305.34 265.407 2385.26
-1324.08 264.901 2380.72
-1351.02 266.026 2390.83
1192.31 246.093 2404.34
1172.36 246.406 2407.4
1144.15 244.962 2393.28
1130.46 246.631 2409.6
1101.08 244.874 2392.42
1082.54 245.506 2398.6
1055.38 244.172 2385.57
1036.29 244.686 2390.59
1013.17 244.251 2386.34
997.326 245.588 2399.4
966.594 243.237 2376.44
943.151 242.657 2370.77
927.318 244.054 2384.41
907.684 244.491 2388.69
881.695 243.197 2376.04
864.666 244.371 2387.52
839.114 243.136 2375.44
813.056 241.685 2361.27
796.353 243.013 2374.24
777.847 243.847 2382.4
753.437 242.826 2372.42
730.316 242.173 2366.04
711.538 242.964 2373.77
690.364 242.961 2373.74
669.146 242.941 2373.54
648.673 243.2 2376.07
627.608 243.246 2376.52
604.524 242.486 2369.09
586.046 243.584 2379.83
560.683 241.797 2362.37
539.787 241.872 2363.1
516.496 240.835 2352.97
497.237 241.671 2361.14
476.23 241.694 2361.36
456.505 242.4 2368.25
433.751 241.487 2359.34
413.006 241.657 2361
391.063 241.106 2355.62
369.34 240.637 2351.03
349.275 241.256 2357.08
327.707 240.85 2353.11
306.7 240.829 2352.9
285.795 240.89 2353.5
265.637 241.641 2360.85
244.204 241.262 2357.13
221.881 239.849 2343.33
201.742 240.748 2352.12
181.281 241.428 2358.76
160.083 241.175 2356.29
139.504 241.919 2363.56
117.84 240.713 2351.78
96.6657 240.2 2346.76
76.0557 241.193 2356.47
54.8967 240.54 2350.08
33.892 240.173 2346.5
12.9941 240.601 2350.68
-7.97773 241.011 2354.68
-29.0431 241.605 2360.49
-49.8282 240.348 2348.21
-70.5986 239.784 2342.7
-91.5355 239.915 2343.98
-112.629 240.331 2348.05
-133.333 239.916 2343.98
-154.736 240.701 2351.65
-174.409 238.928 2334.33
-196.164 240.081 2345.6
-217.459 240.504 2349.73
-237.906 239.996 2344.77
-258.572 239.775 2342.61
-280.004 240.243 2347.18
-299.975 239.48 2339.72
-321.548 240.011 2344.92
-343.33 240.624 2350.91
-363.056 239.809 2342.94
-384.545 240.183 2346.6
-403.695 239.134 2336.35
-426.373 240.175 2346.51
-446.398 239.693 2341.81
-465.334 238.697 2332.08
-488.536 239.88 2343.64
-507.46 238.951 2334.56
-529.485 239.499 2339.92
-550.879 239.73 2342.18
-570.855 239.35 2338.46
-593.167 239.942 2344.24
-617.299 241.205 2356.58
-635.869 240.282 2347.57
-656.658 240.23 2347.06
-676.84 239.967 2344.48
-699.489 240.567 2350.35
-718.977 240.077 2345.56
-740.733 240.351 2348.24
-760.027 239.833 2343.17
-780.763 239.785 2342.71
-800.151 239.336 2338.33
-825.683 240.702 2351.66
-848.001 241.086 2355.42
-865.502 240.115 2345.93
-885.614 239.897 2343.81
-909.23 240.617 2350.84
-924.841 239.233 2337.32
-943.923 238.789 2332.98
-967.067 239.369 2338.64
-987.528 239.274 2337.72
-1011.07 239.916 2343.99
-1027.83 238.954 2334.59
-1046.03 238.357 2328.76
-1069.89 239.048 2335.51
-1092.94 239.537 2340.29
-1113.87 239.55 2340.41
-1139.08 240.467 2349.37
-1158.19 240.086 2345.65
-1180.31 240.334 2348.07
-1192.89 238.661 2331.73
-1226.79 241.239 2356.91
-1244.67 240.633 2350.99
-1262.87 240.109 2345.87
-1288.12 240.919 2353.79
-1307.12 240.554 2350.23
-1318.67 238.85 2333.57
1222.8 230.402 2465.83
1183.22 227.025 2429.69
1159.14 226.553 2424.64
1131.69 225.392 2412.21
1109.36 225.225 2410.43
1080.45 223.688 2393.97
1064.61 224.852 2406.43
1037.44 223.62 2393.25
1019.37 224.338 2400.93
999.21 224.619 2403.93
982.702 225.75 2416.04
945.329 222.032 2376.25
932.71 224.09 2398.28
905.894 222.754 2383.98
882.713 222.269 2378.79
868.72 224.131 2398.71
844.074 223.268 2389.48
817.253 221.771 2373.46
797.923 222.282 2378.92
776.601 222.25 2378.58
758.854 223.267 2389.47
731.187 221.341 2368.86
712.675 222.155 2377.56
693.14 222.689 2383.28
669.683 221.957 2375.45
649.196 222.194 2377.98
625.827 221.427 2369.77
605.508 221.723 2372.95
583.666 221.463 2370.17
566.891 223.179 2388.52
541.118 221.347 2368.92
520.552 221.583 2371.45
498.88 221.349 2368.94
477.808 221.371 2369.18
456.321 221.195 2367.29
435.194 221.185 2367.19
415.24 221.8 2373.77
390.414 219.739 2351.71
369.961 220.045 2354.98
351.176 221.44 2369.91
329.359 220.978 2364.97
306.961 220.038 2354.91
287.119 220.925 2364.41
265.307 220.319 2357.91
243.9 219.972 2354.2
223.573 220.626 2361.2
201.745 219.781 2352.16
180.903 219.938 2353.84
159.816 219.799 2352.35
139.448 220.758 2362.61
118.141 220.307 2357.78
97.159 220.395 2358.73
76.0572 220.188 2356.51
55.0372 220.149 2356.1
34.0507 220.279 2357.49
13.0439 220.484 2359.69
-7.96777 219.742 2351.74
-28.9213 219.634 2350.58
-49.998 220.159 2356.21
-71.0795 220.388 2358.66
-92.0419 220.228 2356.94
-112.631 219.4 2348.08
-133.787 219.763 2351.97
-154.804 219.83 2352.69
-175.301 219.231 2346.27
-195.917 218.893 2342.65
-217.921 220.021 2354.72
-238.713 219.834 2352.72
-259.667 219.815 2352.53
-279.889 219.226 2346.22
-300.99 219.359 2347.64
-323.174 220.212 2356.77
-342.469 219.114 2345.02
-363.82 219.38 2347.87
-385.191 219.63 2350.54
-406.408 219.771 2352.05
-427.976 220.078 2355.34
-447.703 219.454 2348.66
-468.645 219.455 2348.67
-490.567 219.895 2353.38
-511.686 219.954 2354.01
-532.119 219.724 2351.56
-552.471 219.48 2348.94
-573.446 219.493 2349.08
-595.116 219.761 2351.94
-617.042 220.102 2355.6
-639.767 220.696 2361.96
-654.77 218.674 2340.31
-679.039 219.775 2352.1
-698.34 219.251 2346.49
-722.465 220.228 2356.94
-741.017 219.498 2349.14
-757.242 218.139 2334.59
-781.056 218.98 2343.59
-804.964 219.802 2352.39
-824.009 219.289 2346.9
-849.663 220.517 2360.04
-867.54 219.715 2351.46
-889.454 219.95 2353.97
-910.274 219.91 2353.54
-929.199 219.423 2348.33
-950.978 219.618 2350.41
-970.447 219.282 2346.82
-992.519 219.536 2349.53
-1015.76 220.032 2354.85
-1035.81 219.831 2352.7
-1056.17 219.704 2351.34
-1071.48 218.551 2338.99
-1097.09 219.502 2349.17
-1120.65 220.015 2354.66
-1134.66 218.669 2340.26
-1162.52 219.994 2354.44
-1185.16 220.299 2357.7
-1199.61 219.099 2344.86
-1225.32 219.962 2354.1
-1249.24 220.479 2359.63
-1268.45 220.161 2356.23
-1296.16 221.306 2368.48
-1322.52 222.187 2377.91
-1335.22 220.782 2362.87
1215.16 207.114 2450.42
1182.66 205.266 2428.55
1165.04 205.98 2436.99
1124.38 202.567 2396.62
1113.84 204.556 2420.15
1091.41 204.396 2418.26
1066.53 203.762 2410.75
1039.72 202.726 2398.49
1023.17 203.688 2409.88
998.733 203.089 2402.79
971.347 201.849 2388.12
946.709 201.139 2379.72
932.626 202.689 2398.06
911.121 202.661 2397.73
886.792 201.989 2389.78
864.573 201.776 2387.26
839.685 200.914 2377.06
821.074 201.548 2384.56
795.952 200.575 2373.05
777.154 201.186 2380.27
755.173 200.984 2377.88
732.889 200.687 2374.37
715.194 201.667 2385.97
688.912 200.211 2368.74
670.442 201.005 2378.14
647.572 200.489 2372.03
627.306 200.772 2375.37
604.724 200.307 2369.87
587.198 201.544 2384.51
562.021 200.149 2368
539.97 199.801 2363.9
518.165 199.521 2360.58
498.435 200.049 2366.83
476.593 199.739 2363.16
457.233 200.489 2372.03
434.264 199.652 2362.13
414.184 200.126 2367.73
390.876 199.007 2354.49
370.245 199.201 2356.79
348.087 198.548 2349.06
328.513 199.38 2358.9
306.812 198.945 2353.77
287.582 200.167 2368.22
266.071 199.869 2364.7
243.679 198.802 2352.07
222.62 198.723 2351.14
202.073 199.132 2355.98
180.51 198.519 2348.72
159.671 198.646 2350.22
138.56 198.421 2347.56
117.736 198.6 2349.68
97.0303 199.101 2355.61
75.9563 198.913 2353.39
54.9409 198.794 2351.97
33.9048 198.406 2347.39
12.966 198.255 2345.6
-7.96391 198.678 2350.61
-28.944 198.833 2352.43
-49.8471 198.551 2349.1
-70.8352 198.674 2350.56
-91.9976 199.118 2355.81
-112.958 199.042 2354.91
-133.383 198.193 2344.86
-154.664 198.674 2350.55
-175.661 198.719 2351.09
-196.569 198.664 2350.44
-217.173 198.343 2346.64
-237.993 198.258 2345.64
-259.979 199.079 2355.35
-279.516 198.043 2343.09
-300.59 198.164 2344.52
-321.393 198.102 2343.79
-342.446 198.192 2344.85
-362.574 197.767 2339.83
-385.808 198.991 2354.31
-405.362 198.288 2345.99
-426.521 198.401 2347.33
-446.923 198.168 2344.57
-468.219 198.334 2346.54
-488.7 198.156 2344.42
-508.473 197.716 2339.22
-532.738 198.989 2354.29
-552.427 198.522 2348.76
-574.345 198.86 2352.76
-592.867 198.04 2343.06
-616.234 198.839 2352.51
-637.631 198.971 2354.07
-658.202 198.845 2352.58
-678.427 198.625 2349.98
-699.13 198.555 2349.14
-724.445 199.76 2363.4
-739.749 198.214 2345.12
-763.01 198.827 2352.37
-779.719 197.746 2339.57
-801.013 197.853 2340.85
-823.927 198.345 2346.66
-844.853 198.346 2346.68
-867.797 198.809 2352.15
-884.782 197.917 2341.6
-905.504 197.883 2341.2
-928.732 198.386 2347.15
-953.492 199.187 2356.62
-971.481 198.569 2349.32
-991.631 198.41 2347.43
-1008.93 197.699 2339.02
-1036.09 198.909 2353.34
-1052.78 198.102 2343.79
-1071.77 197.749 2339.61
-1099.07 198.915 2353.4
-1116.65 198.312 2346.27
-1137.12 198.234 2345.35
-1161.05 198.75 2351.46
-1184.11 199.102 2355.63
-1204.45 198.992 2354.32
-1221.94 198.424 2347.6
-1248.14 199.265 2357.55
-1277.73 200.611 2373.47
-1310.35 202.38 2394.41
-1317.99 200.297 2369.76
-1343.38 200.935 2377.31
1215.41 185.305 2450.92
1181.59 183.448 2426.36
1142.05 180.615 2388.89
1117.4 180.076 2381.75
1107.4 181.921 2406.16
1076.87 180.4 2386.04
1057.07 180.652 2389.38
1036.37 180.758 2390.77
1015.99 180.923 2392.96
996.658 181.288 2397.79
968.556 180.038 2381.26
950.239 180.592 2388.59
924.524 179.733 2377.23
902.828 179.634 2375.91
879.017 179.098 2368.83
860.36 179.612 2375.63
837.889 179.336 2371.97
814.126 178.762 2364.38
794.557 179.103 2368.89
776.105 179.721 2377.06
752.339 179.108 2368.96
733.364 179.634 2375.91
709.932 179.067 2368.41
687.97 178.847 2365.5
668.176 179.195 2370.1
645.11 178.659 2363.02
623.393 178.473 2360.56
604.633 179.151 2369.52
582.821 178.94 2366.74
563.089 179.376 2372.5
540.778 178.993 2367.43
520.013 179.111 2368.99
495.28 177.814 2351.85
475.932 178.422 2359.88
454.714 178.352 2358.96
432.759 177.973 2353.94
411.891 178.024 2354.63
390.493 177.84 2352.18
369.728 177.939 2353.5
349.206 178.175 2356.61
328.742 178.472 2360.55
306.511 177.785 2351.45
286.941 178.654 2362.95
264.473 177.713 2350.5
243.85 177.956 2353.72
222.683 177.811 2351.8
201.449 177.576 2348.7
180.179 177.252 2344.41
159.851 177.892 2352.88
139.01 178.067 2355.19
117.769 177.701 2350.35
96.4013 176.944 2340.34
75.3025 176.399 2333.13
54.7004 177.046 2341.68
33.9001 177.452 2347.06
12.9697 177.393 2346.27
-7.97632 177.997 2354.27
-29.0136 178.287 2358.09
-49.8825 177.732 2350.76
-70.8254 177.692 2350.23
-91.6348 177.412 2346.52
-112.513 177.343 2345.62
-133.251 177.111 2342.54
-154.511 177.541 2348.23
-174.819 176.905 2339.82
-195.876 177.082 2342.16
-216.591 176.945 2340.35
-237.959 177.319 2345.3
-259.067 177.455 2347.09
-280.775 177.95 2353.64
-299.912 176.86 2339.23
-321.481 177.254 2344.43
-342.972 177.558 2348.46
-363.283 177.252 2344.41
-385.107 177.677 2350.04
-404.283 176.9 2339.75
-426.814 177.595 2348.94
-446.669 177.163 2343.24
-467.954 177.312 2345.2
-488.218 177.078 2342.11
-509.241 177.127 2342.76
-528.695 176.648 2336.42
-552.113 177.48 2347.42
-574.494 177.929 2353.37
-593.262 177.268 2344.62
-612.095 176.67 2336.71
-638.052 178.1 2355.63
-654.605 176.898 2339.72
-680.531 178.224 2357.27
-696.741 177.003 2341.12
-720.823 177.795 2351.59
-736.626 176.557 2335.22
-758.576 176.82 2338.7
-781.794 177.357 2345.8
-804.106 177.666 2349.88
-823.126 177.25 2344.38
-841.668 176.754 2337.83
-865.923 177.453 2347.07
-884.274 176.938 2340.26
-900.666 176.064 2328.69
-921.595 176.096 2329.11
-939.108 175.488 2321.07
-967.496 176.894 2339.68
-989.123 177.032 2341.5
-1008.35 176.742 2337.67
-1029.47 176.79 2338.3
-1048.09 176.415 2333.34
-1067.41 176.17 2330.1
-1095.06 177.284 2344.83
-1109.58 176.27 2331.42
-1125.16 175.456 2320.66
-1148.02 175.79 2325.07
-1169.1 175.842 2325.76
-1197.4 176.96 2340.54
-1214.79 176.455 2333.86
-1237.16 176.678 2336.82
-1240.12 174.168 2303.62
-1292.86 178.617 2362.46
-1295.42 176.101 2329.19
-1287.65 172.283 2278.68
1215.14 163.417 2450.37
1179.14 161.478 2421.31
1154.26 161.02 2414.44
1138.33 161.815 2426.36
1119.24 162.184 2431.89
1086.47 160.544 2407.31
1064.9 160.529 2407.07
1039.7 159.954 2398.46
1016.53 159.673 2394.24
994.896 159.627 2393.56
973.217 159.572 2392.72
947.068 158.764 2380.62
930.096 159.494 2391.55
909.353 159.596 2393.08
882.63 158.627 2378.56
865.938 159.459 2391.03
841.684 158.904 2382.72
815.885 158.022 2369.49
799.769 159.018 2384.43
775.928 158.491 2376.52
754.885 158.522 2376.98
729.96 157.715 2364.89
713.209 158.679 2379.34
689.764 158.168 2371.67
669.65 158.412 2375.33
649.169 158.582 2377.88
627.583 158.485 2376.42
603.018 157.602 2363.19
586.509 158.837 2381.71
561.582 157.8 2366.16
540.88 157.915 2367.88
520.968 158.279 2373.34
501.337 158.764 2380.61
476.418 157.542 2362.29
454.614 157.285 2358.44
435.008 157.801 2366.18
414.379 157.979 2368.85
392.367 157.621 2363.47
370.11 157.118 2355.94
349.422 157.261 2358.07
329.083 157.589 2363
307.475 157.313 2358.85
285.797 156.957 2353.52
265.419 157.317 2358.91
244.619 157.466 2361.15
223.292 157.272 2358.24
202.001 157.065 2355.14
180.674 156.78 2350.86
159.614 156.681 2349.38
138.804 156.835 2351.69
117.594 156.512 2346.85
96.8728 156.842 2351.79
75.704 156.427 2345.57
54.898 156.732 2350.14
34.0511 157.224 2357.52
12.9558 156.306 2343.76
-7.98474 157.173 2356.75
-28.9583 156.962 2353.59
-50.041 157.272 2358.23
-70.7498 156.571 2347.72
-92.004 157.121 2355.97
-112.536 156.462 2346.1
-133.845 156.921 2352.98
-154.412 156.504 2346.72
-175.672 156.805 2351.24
-196.332 156.563 2347.61
-217.554 156.773 2350.75
-238.813 156.97 2353.71
-258.353 156.097 2340.62
-279.177 156.072 2340.24
-300.86 156.497 2346.62
-321.681 156.448 2345.88
-343.76 156.98 2353.86
-363.201 156.314 2343.88
-383.892 156.23 2342.62
-406.909 157.053 2354.95
-427.61 156.944 2353.32
-447.502 156.563 2347.61
-469.8 157.02 2354.46
-489.328 156.552 2347.44
-508.912 156.139 2341.25
-530.334 156.3 2343.67
-552.672 156.709 2349.8
-574.363 156.911 2352.83
-594.349 156.65 2348.91
-615.238 156.636 2348.71
-638.689 157.254 2357.98
-656.87 156.577 2347.82
-676.222 156.212 2342.34
-698.853 156.603 2348.21
-721.824 157.046 2354.85
-742.153 156.905 2352.74
-764.245 157.134 2356.18
-783.185 156.721 2349.98
-799.067 155.733 2335.16
-826.564 157.001 2354.18
-843.153 156.186 2341.95
-866.059 156.552 2347.44
-886.527 156.471 2346.22
-909.082 156.753 2350.45
-929.443 156.652 2348.95
-949.725 156.543 2347.31
-967.637 156.057 2340.02
-990.042 156.3 2343.67
-1011.26 156.35 2344.41
-1028.41 155.781 2335.89
-1048.23 155.633 2333.66
-1072.54 156.142 2341.3
-1085.92 155.072 2325.25
-1117.45 156.585 2347.94
-1140.54 156.882 2352.39
-1158.77 156.511 2346.84
-1187.62 157.563 2362.61
-1200.73 156.526 2347.05
-1202.03 154.011 2309.34
-1243.85 156.685 2349.44
-1273.86 157.808 2366.27
-1311.7 159.849 2396.88
-1313.03 157.446 2360.85
-1335.42 157.604 2363.21
1221 142.253 2462.2
1175.29 139.434 2413.42
1151.34 139.14 2408.32
1127.82 138.888 2403.96
1108.9 139.203 2409.42
1082.04 138.514 2397.49
1070.24 139.765 2419.14
1043.76 139.111 2407.82
1010.76 137.542 2380.66
993.066 138.032 2389.15
977.442 138.839 2403.11
953.427 138.463 2396.6
929.095 138.022 2388.98
904.118 137.463 2379.3
889.312 138.461 2396.57
861.942 137.503 2379.99
843.095 137.891 2386.71
818.564 137.346 2377.27
797.944 137.445 2378.98
777.246 137.536 2380.55
756.473 137.618 2381.98
736.219 137.802 2385.16
712.137 137.259 2375.77
689.28 136.926 2370.01
668.368 136.971 2370.78
648.714 137.285 2376.22
624.083 136.531 2363.17
607.034 137.442 2378.93
582.756 136.722 2366.47
562.798 137 2371.28
540.72 136.763 2367.18
520.6 137.022 2371.67
500.78 137.386 2377.96
475.685 136.27 2358.66
455.612 136.557 2363.62
433.977 136.381 2360.57
412.193 136.137 2356.35
391.924 136.395 2360.81
371.085 136.472 2362.14
348.733 135.968 2353.42
328.986 136.481 2362.3
307.513 136.298 2359.14
286.674 136.391 2360.75
266.122 136.646 2365.16
244.033 136.087 2355.49
223.227 136.206 2357.54
201.515 135.74 2349.47
180.62 135.78 2350.16
160.04 136.097 2355.65
138.409 135.482 2345.02
117.858 135.893 2352.13
96.803 135.776 2350.09
75.778 135.647 2347.86
54.9284 135.853 2351.44
33.796 135.184 2339.85
13.0237 136.119 2356.04
-7.98577 136.178 2357.06
-28.9989 136.168 2356.89
-50.0263 136.206 2357.54
-70.6987 135.541 2346.02
-91.9379 136.018 2354.28
-112.263 135.216 2340.41
-133.295 135.384 2343.31
-154.956 136.059 2354.99
-175.174 135.456 2344.57
-196.856 135.994 2353.87
-217.489 135.774 2350.06
-237.936 135.485 2345.07
-259.041 135.589 2346.86
-280.275 135.739 2349.45
-301.023 135.649 2347.9
-322.533 135.892 2352.1
-343.369 135.838 2351.18
-364.62 135.946 2353.04
-385.713 135.986 2353.73
-406.277 135.845 2351.29
-426.946 135.751 2349.67
-449.236 136.158 2356.7
-469.268 135.874 2351.79
-489.18 135.581 2346.73
-512.15 136.125 2356.14
-531.495 135.701 2348.8
-549.99 135.1 2338.4
-574.189 135.893 2352.12
-594.413 135.722 2349.17
-615.809 135.822 2350.89
-639.018 136.301 2359.19
-661.78 136.658 2365.37
-678.783 135.84 2351.21
-697.784 135.46 2344.62
-719.848 135.678 2348.41
-742.526 135.997 2353.92
-762.779 135.866 2351.66
-786.101 136.274 2358.72
-804.635 135.853 2351.43
-824.986 135.752 2349.68
-848.639 136.186 2357.19
-865.098 135.472 2344.84
-890.486 136.157 2356.7
-910.96 136.077 2355.31
-926.213 135.238 2340.79
-946.806 135.198 2340.1
-968.857 135.364 2342.97
-994.004 135.946 2353.05
-1007.77 134.981 2336.34
-1033.71 135.651 2347.94
-1058.53 136.151 2356.59
-1076.36 135.749 2349.63
-1097.82 135.813 2350.73
-1114.09 135.244 2340.88
-1138.44 135.658 2348.05
-1162.82 136.062 2355.04
-1177.83 135.373 2343.13
-1206.71 136.276 2358.75
-1221 135.527 2345.78
-1238.31 135.134 2338.98
-1273.46 136.668 2365.53
-1280.14 135.147 2339.2
-1310.19 136.102 2355.73
-1318.29 134.783 2332.9
1236.56 121.833 2493.57
1174.43 117.83 2411.65
1160.4 118.594 2427.27
1115.53 116.174 2377.76
1111.84 118.033 2415.81
1086.16 117.585 2406.63
1062.58 117.351 2401.83
1034.24 116.571 2385.87
1018.98 117.261 2400.01
993.468 116.778 2390.12
978.216 117.506 2405.01
950.863 116.78 2390.16
929.478 116.771 2389.96
900.234 115.75 2369.08
884.47 116.456 2383.52
862.983 116.424 2382.87
843.118 116.615 2386.78
818.586 116.154 2377.33
797.966 116.237 2379.05
776.959 116.268 2379.67
756.497 116.384 2382.05
732.707 115.98 2373.79
711.013 115.894 2372.02
692.092 116.268 2379.67
667.577 115.697 2367.98
645.844 115.585 2365.7
627.42 116.079 2375.81
605.575 115.952 2373.21
582.539 115.58 2365.59
563.974 116.1 2376.23
540.519 115.614 2366.3
519.551 115.643 2366.89
498.125 115.568 2365.36
474.716 115.006 2353.86
455.064 115.345 2360.78
434.176 115.387 2361.65
413.759 115.566 2365.3
391.287 115.159 2356.97
371.412 115.513 2364.22
349.187 115.135 2356.49
327.9 115.038 2354.5
306.882 115.028 2354.3
286.086 115.107 2355.9
265.8 115.419 2362.29
243.839 114.994 2353.61
222.767 114.949 2352.68
201.439 114.749 2348.59
180.629 114.831 2350.27
159.641 114.808 2349.79
138.828 114.921 2352.11
117.414 114.489 2343.27
96.7666 114.779 2349.21
75.6528 114.524 2343.98
54.8611 114.748 2348.56
33.9707 114.913 2351.95
13.0078 114.972 2353.16
-7.97263 114.973 2353.18
-28.988 115.112 2356.01
-49.944 114.997 2353.66
-70.3712 114.093 2335.16
-91.6307 114.643 2346.41
-112.507 114.599 2345.51
-133.358 114.545 2344.42
-154.701 114.873 2351.12
-175.182 114.558 2344.68
-196.282 114.672 2347.02
-217.407 114.778 2349.17
-237.947 114.582 2345.18
-258.724 114.524 2343.99
-279.46 114.457 2342.62
-300.783 114.624 2346.02
-320.919 114.346 2340.33
-342.374 114.543 2344.36
-363.719 114.682 2347.22
-384.438 114.62 2345.95
-406.294 114.886 2351.39
-425.356 114.375 2340.92
-447.384 114.671 2346.99
-470.069 115.102 2355.8
-488.995 114.615 2345.84
-509.411 114.503 2343.54
-528.428 114.097 2335.24
-551.838 114.635 2346.25
-573.261 114.736 2348.32
-593.453 114.592 2345.37
-615.576 114.818 2350
-633.816 114.329 2339.99
-658.034 114.915 2351.98
-675.478 114.318 2339.77
-699.798 114.886 2351.39
-721.039 114.93 2352.29
-738.339 114.361 2340.65
-761.565 114.716 2347.91
-780.435 114.414 2341.72
-801.743 114.475 2342.98
-828.313 115.265 2359.16
-846.627 114.896 2351.6
-860.618 113.973 2332.7
-884.499 114.371 2340.86
-908.453 114.761 2348.83
-928.431 114.642 2346.39
-942.695 113.838 2329.94
-975.357 115.243 2358.69
-990.905 114.609 2345.71
-1007.39 114.107 2335.44
-1036.13 114.986 2353.44
-1049.13 114.117 2335.65
-1074.7 114.623 2346.01
-1091.06 114.147 2336.26
-1123.97 115.386 2361.63
-1137.13 114.591 2345.35
-1153.54 114.146 2336.23
-1175.59 114.264 2338.66
-1191.7 113.811 2329.39
-1219.61 114.482 2343.12
-1237.83 114.236 2338.08
-1247.88 113.255 2318.02
-1287.32 114.932 2352.33
-1303.86 114.543 2344.36
-1305 112.834 2309.39
1232.07 99.2386 2484.51
1186.18 97.2922 2435.78
1151.72 96.2273 2409.12
1126.08 95.8728 2400.24
1106.35 96.0183 2403.89
1083.23 95.8685 2400.14
1060.91 95.7854 2398.06
1052.08 96.9416 2427
1015.02 95.4913 2390.69
996.104 95.7217 2396.46
976.665 95.911 2401.2
954.142 95.7991 2398.4
925.088 95.0113 2378.68
909.064 95.5563 2392.32
885.82 95.3502 2387.16
863.965 95.2872 2385.58
841.417 95.1426 2381.96
821.478 95.2931 2385.73
797.614 94.9843 2378
778.787 95.2749 2385.27
757.071 95.2183 2383.86
734.151 95.0027 2378.46
712.993 95.0091 2378.62
693.181 95.2008 2383.42
671.618 95.1565 2382.31
650.029 95.1054 2381.03
629.438 95.202 2383.45
605.059 94.7122 2371.19
584.906 94.8726 2375.2
566.723 95.3764 2387.82
542.724 94.9026 2375.96
522.532 95.083 2380.47
498.108 94.476 2365.27
477.267 94.5251 2366.5
457.696 94.8417 2374.43
433.078 94.0925 2355.67
413.918 94.5134 2366.21
391.274 94.141 2356.89
371.09 94.3519 2362.17
351.08 94.6352 2369.26
328.44 94.2005 2358.38
308.551 94.549 2367.1
286.92 94.3761 2362.77
265.904 94.3937 2363.21
244.449 94.2453 2359.5
223.136 94.1291 2356.59
201.347 93.7667 2347.52
181.695 94.431 2364.15
159.704 93.8943 2350.71
139.177 94.1862 2358.02
118.06 94.1122 2356.17
96.5991 93.6719 2345.14
75.9406 93.9817 2352.9
55.0461 94.1247 2356.48
33.9408 93.8612 2349.88
13.0295 94.1489 2357.08
-7.98933 94.1897 2358.11
-28.9872 94.1033 2355.94
-49.9637 94.0493 2354.59
-70.9407 94.0279 2354.06
-91.7838 93.8793 2350.34
-112.839 93.9626 2352.42
-133.694 93.8791 2350.33
-153.974 93.4696 2340.08
-175.846 94.0084 2353.57
-196.276 93.7437 2346.94
-217.585 93.9093 2351.09
-238.948 94.0672 2355.04
-259.264 93.8209 2348.87
-281.344 94.2018 2358.41
-301.154 93.8226 2348.92
-322.809 94.0301 2354.11
-343.084 93.835 2349.23
-364.93 94.0671 2355.04
-384.424 93.7007 2345.86
-406.28 93.9182 2351.31
-427.663 94.0103 2353.61
-448.304 93.9382 2351.81
-470.052 94.0943 2355.72
-489.588 93.8132 2348.68
-509.179 93.5653 2342.47
-532.375 93.9733 2352.69
-553.646 94.0233 2353.94
-573.238 93.795 2348.23
-594.899 93.9093 2351.09
-615.551 93.8621 2349.9
-639.797 94.3479 2362.07
-658.276 93.9794 2352.84
-677.387 93.7213 2346.38
-695.206 93.305 2335.96
-721.006 93.9531 2352.18
-741.61 93.9065 2351.02
-761.837 93.8161 2348.75
-784.82 94.0609 2354.88
-803.321 93.7696 2347.59
-828.936 94.3025 2360.93
-850.308 94.3382 2361.83
-864.722 93.619 2343.82
-885.865 93.645 2344.47
-911.289 94.1119 2356.16
-933.896 94.2734 2360.2
-948.638 93.6513 2344.63
-968.813 93.5809 2342.86
-994.737 94.057 2354.79
-1011.68 93.6818 2345.39
-1032.85 93.7056 2345.99
-1051.93 93.542 2341.89
-1077.96 93.9913 2353.14
-1098.6 93.9623 2352.41
-1122.18 94.1807 2357.88
-1138.36 93.7822 2347.9
-1157.88 93.6678 2345.04
-1176.86 93.5138 2341.19
-1200.72 93.7471 2347.03
-1234.29 94.7177 2371.32
-1236.34 93.2776 2335.27
-1262.94 93.7064 2346.01
-1287.71 93.9875 2353.04
-1311.06 94.1575 2357.3
-1327.52 93.8352 2349.23
1196.85 74.8838 2413.5
1180.8 75.232 2424.72
1147.71 74.4874 2400.72
1130.61 74.7727 2409.91
1113.33 75.0558 2419.04
1079.81 74.2344 2392.57
1057.95 74.1975 2391.38
1040.83 74.4977 2401.05
1016.07 74.2532 2393.17
999.825 74.633 2405.41
969.398 73.9479 2383.33
953.294 74.3493 2396.27
931.863 74.344 2396.1
905.765 73.9573 2383.64
886.414 74.1163 2388.76
866.249 74.2134 2391.89
843.984 74.1309 2389.23
817.154 73.6327 2373.17
798.159 73.8328 2379.62
775.907 73.7345 2376.45
757.288 73.9855 2384.54
734.068 73.7884 2378.19
712.625 73.7637 2377.4
690.871 73.7042 2375.48
669.102 73.6393 2373.39
648.904 73.7487 2376.91
627.838 73.7635 2377.39
606.968 73.8033 2378.67
583.408 73.5068 2369.12
562.045 73.4755 2368.11
540.216 73.3783 2364.98
519.261 73.3967 2365.57
499.906 73.6526 2373.82
477.412 73.448 2367.22
455.376 73.2983 2362.39
433.752 73.2036 2359.34
413.701 73.3781 2364.97
391.721 73.2111 2359.59
371.514 73.3751 2364.87
349.577 73.1966 2359.12
329.093 73.3191 2363.07
307.871 73.2827 2361.89
286.166 73.1173 2356.56
264.981 73.0692 2355.01
244.525 73.2313 2360.24
222.735 72.9866 2352.35
202.265 73.1684 2358.21
180.68 72.9428 2350.94
159.822 72.9896 2352.45
138.691 72.9069 2349.78
118.198 73.19 2358.91
97.041 73.0958 2355.87
75.7711 72.8407 2347.65
54.6667 72.6107 2340.24
34.0526 73.1501 2357.62
13.0115 73.0326 2353.83
-7.97153 73.0022 2352.85
-28.9964 73.1212 2356.69
-50.0007 73.1103 2356.34
-70.7222 72.8146 2346.81
-92.0078 73.1021 2356.07
-113.018 73.1048 2356.16
-133.339 72.7301 2344.08
-154.548 72.8762 2348.79
-176.125 73.1401 2357.3
-196.837 73.0271 2353.65
-216.916 72.7232 2343.86
-238.518 72.9387 2350.81
-258.797 72.7473 2344.64
-279.774 72.7663 2345.25
-302.391 73.1795 2358.57
-323.316 73.1561 2357.81
-343.913 73.0657 2354.9
-365.043 73.0925 2355.76
-383.734 72.6547 2341.65
-405.724 72.8545 2348.09
-427.615 73.0177 2353.35
-449.189 73.114 2356.46
-469.021 72.9309 2350.55
-489.124 72.8038 2346.46
-509.97 72.793 2346.11
-532.977 73.0795 2355.35
-551.066 72.6955 2342.97
-572.461 72.7598 2345.04
-594.095 72.8488 2347.91
-615.48 72.9023 2349.63
-636.849 72.9504 2351.18
-656.853 72.8441 2347.76
-679.803 73.061 2354.75
-699.4 72.9152 2350.05
-718.871 72.7653 2345.22
-740.32 72.8183 2346.93
-761.438 72.8369 2347.52
-782.199 72.8211 2347.02
-807.755 73.2409 2360.55
-826.189 73.01 2353.11
-845.128 72.8342 2347.44
-869.115 73.0913 2355.73
-891.41 73.1974 2359.14
-909.015 72.9224 2350.28
-931.209 73.0195 2353.41
-953.769 73.1405 2357.31
-966.4 72.5113 2337.03
-990.336 72.7389 2344.37
-1012.74 72.8471 2347.85
-1033.93 72.8652 2348.44
-1054.25 72.8227 2347.07
-1078.66 73.0583 2354.66
-1099.31 73.0356 2353.93
-1124.19 73.2891 2362.1
-1133.86 72.5603 2338.61
-1156.41 72.6671 2342.05
-1178.5 72.7417 2344.46
-1207.39 73.2262 2360.07
-1214.29 72.3831 2332.9
-1244.6 72.9405 2350.87
-1249.51 72.0156 2321.06
-1291.39 73.2164 2359.76
-1289.51 71.9381 2318.56
-1328.33 72.9343 2350.67
1210.85 53.9896 2441.72
1188.03 53.9419 2439.57
1153.53 53.3525 2412.91
1139.33 53.6969 2428.49
1116.47 53.6391 2425.87
1095.65 53.6788 2427.67
1076.37 53.7966 2432.99
1038.25 52.9589 2395.11
1022.53 53.2523 2408.38
1004.63 53.4424 2416.98
981.272 53.344 2412.53
952.011 52.9132 2393.04
932.055 52.9917 2396.59
915.186 53.2534 2408.43
891.816 53.1404 2403.32
876.984 53.5431 2421.53
844.162 52.84 2389.73
824.163 52.9239 2393.53
797.375 52.5648 2377.29
781.969 52.9569 2395.02
761.99 53.0527 2399.35
735.701 52.7018 2383.48
713.928 52.6634 2381.74
692.138 52.6212 2379.84
672.233 52.7242 2384.49
647.993 52.4828 2373.58
626.7 52.4718 2373.08
607.598 52.65 2381.14
584.255 52.4603 2372.56
561.479 52.3091 2365.72
542.342 52.4983 2374.28
