# .PCD v0.7 - Point Cloud Data file format
VERSION 0.7
FIELDS x y z
SIZE 4 4 4
TYPE F F F
COUNT 1 1 1
WIDTH 1959
HEIGHT 1
VIEWPOINT 0 0 0 1 0 0 0
POINTS 1959
DATA ascii
1051.75 -527.824 2547.33
1019.43 -523.017 2524.12
992.462 -520.799 2513.42
962.073 -516.64 2493.35
956.524 -525.94 2538.23
922.079 -519.418 2506.75
895.707 -517.23 2496.19
853.247 -505.4 2439.1
838.566 -509.834 2460.5
803.71 -501.91 2422.26
779.374 -500.296 2414.47
752.474 -496.897 2398.07
732.375 -497.92 2403
707.974 -495.991 2393.7
685.034 -494.998 2388.9
665.28 -496.316 2395.27
640.539 -493.879 2383.5
617.927 -492.97 2379.12
597.256 -493.6 2382.16
574.881 -492.816 2378.37
554.975 -494.171 2384.91
534.492 -495.099 2389.39
512.661 -494.805 2387.97
489.832 -493.48 2381.58
468.972 -494.107 2384.6
446.399 -492.904 2378.8
426.138 -494.259 2385.34
402.618 -491.78 2373.37
381.922 -492.665 2377.64
359.656 -491.508 2372.06
339.814 -493.728 2382.77
317.683 -492.697 2377.8
295.617 -491.627 2372.63
275.085 -493.138 2379.93
253.574 -493.001 2379.26
231.961 -492.623 2377.44
210.452 -492.41 2376.41
188.791 -491.754 2373.25
167.449 -491.868 2373.8
146.688 -493.971 2383.95
125.016 -493.2 2380.23
103.104 -490.972 2369.47
81.8863 -491.745 2373.21
60.4719 -491.467 2371.86
38.9494 -489.527 2362.5
17.7333 -491.404 2371.56
-3.63967 -492.431 2376.52
-24.9865 -491.188 2370.52
-46.3748 -491.53 2372.17
-68.0111 -493.456 2381.46
-89.0358 -491.085 2370.02
-110.256 -490.502 2367.2
-131.198 -489.07 2360.3
-153.204 -491.45 2371.78
-174.468 -491.158 2370.37
-196.014 -491.637 2372.68
-216.691 -490.058 2365.06
-238.194 -490.462 2367.01
-259.606 -490.627 2367.81
-281.472 -491.56 2372.31
-302.154 -490.441 2366.91
-324.176 -491.499 2372.02
-345.697 -491.715 2373.06
-366.76 -491.292 2371.02
-387.283 -490.232 2365.9
-409.187 -490.939 2369.32
-428.842 -489.012 2360.01
-451.79 -490.844 2368.86
-473.322 -491.042 2369.81
-492.431 -488.818 2359.08
-514.446 -489.543 2362.58
-537.351 -491.024 2369.72
-561.238 -493.255 2380.49
-583.404 -493.864 2383.43
-601.719 -491.286 2370.99
-620.528 -489.275 2361.28
-649.16 -494.885 2388.36
-669.452 -493.981 2384
-687.441 -491.487 2371.96
-705.182 -488.972 2359.82
-728.735 -490.515 2367.27
-754.733 -493.57 2382.01
-771.194 -490.392 2366.67
-804.492 -497.803 2402.44
-812.15 -489.375 2361.77
-840.655 -493.619 2382.25
-866.429 -496.089 2394.17
-891.315 -497.941 2403.11
-909.314 -495.951 2393.5
-938.139 -499.819 2412.17
-957.397 -498.531 2405.96
-971.319 -494.583 2386.9
-985.265 -490.818 2368.73
-1010.01 -492.481 2376.76
-1036.78 -495.039 2389.1
-1048.96 -490.667 2368
-1072.09 -491.49 2371.97
-1089.05 -489.508 2362.41
-1125.04 -495.991 2393.69
-1152.08 -498.363 2405.14
-1183.12 -502.34 2424.34
-1186.81 -494.771 2387.81
0 0 0
-1214.02 -488.412 2357.12
0 0 0
0 0 0
0 0 0
0 0 0
-1354.61 -501.141 2418.55
0 0 0
0 0 0
0 0 0
0 0 0
0 0 0
0 0 0
0 0 0
1155.58 -556.572 2574.15
0 0 0
1097.29 -550.597 2546.51
1108.6 -568.146 2627.68
1091.64 -571.663 2643.94
1067.39 -571.433 2642.88
1024.73 -561.113 2595.15
1015.59 -569.089 2632.03
962.247 -552.09 2553.42
930.402 -546.893 2529.38
912.124 -549.61 2541.95
858.325 -530.512 2453.62
842.562 -534.536 2472.23
806.086 -525.28 2429.42
777.781 -520.981 2409.54
756.205 -521.071 2409.95
730.863 -518.495 2398.04
711.504 -520.137 2405.63
684.146 -515.85 2385.81
664.412 -517.22 2392.14
643.765 -517.947 2395.51
621.298 -517.209 2392.09
600.037 -517.459 2393.25
576.417 -515.617 2384.73
555.565 -516.205 2387.45
532.921 -515.107 2382.37
512.587 -516.244 2387.63
488.974 -514.033 2377.4
466.825 -513.23 2373.69
446.153 -514.051 2377.48
424.007 -513.171 2373.41
403.866 -514.753 2380.73
382.949 -515.466 2384.03
359.747 -513.008 2372.66
338.653 -513.435 2374.64
317.501 -513.825 2376.44
295.57 -512.919 2372.25
275.488 -515.332 2383.41
253.531 -514.348 2378.86
231.542 -513.113 2373.15
209.553 -511.626 2366.27
189.379 -514.732 2380.64
167.695 -514.009 2377.29
146.421 -514.511 2379.61
124.891 -514.13 2377.85
103.256 -513.075 2372.97
82.0742 -514.303 2378.65
60.4115 -512.323 2369.49
39.1523 -513.472 2374.81
17.7083 -512.046 2368.21
-3.63153 -512.693 2371.2
-25.0336 -513.511 2374.99
-46.252 -511.543 2365.89
-67.943 -514.395 2379.08
-88.7636 -510.87 2362.77
-110.419 -512.585 2370.71
-131.448 -511.305 2364.79
-152.926 -511.885 2367.47
-174.653 -513.058 2372.89
-195.337 -511.241 2364.49
-217.726 -513.807 2376.36
-238.84 -513.176 2373.44
-259.031 -510.825 2362.57
-280.274 -510.75 2362.22
-301.364 -510.426 2360.72
-323.992 -512.578 2370.68
-344.374 -511.131 2363.98
-366.704 -512.574 2370.65
-386.753 -510.845 2362.66
-408.628 -511.585 2366.08
-431.931 -513.949 2377.01
-452.826 -513.36 2374.29
-472.682 -511.699 2366.61
-496.167 -513.94 2376.97
-518.337 -514.691 2380.45
-537.066 -512.101 2368.47
-559.368 -512.986 2372.56
-581.932 -514.037 2377.42
-602.13 -512.997 2372.61
-626.432 -515.405 2383.75
-646.514 -514.297 2378.62
-663.288 -510.712 2362.05
-687.098 -512.6 2370.78
-706.801 -511.402 2365.24
-727.228 -510.784 2362.37
-750.518 -512.154 2368.71
-768.097 -509.658 2357.17
-797.257 -514.774 2380.83
-815.917 -513.021 2372.72
-831.786 -509.647 2357.12
-860.023 -513.83 2376.46
-877.268 -511.402 2365.24
-896.718 -510.345 2360.34
-918.523 -510.645 2361.73
-954.431 -518.595 2398.5
-963.137 -511.74 2366.8
-992.008 -515.664 2384.95
-1008.44 -513.094 2373.06
-1025.81 -511.095 2363.82
-1052.51 -513.735 2376.02
-1066.01 -509.95 2358.52
-1092.33 -512.329 2369.52
-1109.15 -510.247 2359.89
-1140.18 -514.659 2380.3
-1169.74 -518.252 2396.92
-1189.42 -517.422 2393.08
-1194.36 -510.321 2360.23
-1233.84 -517.967 2395.6
-1242.76 -512.743 2371.44
-1270.22 -515.216 2382.87
-1286.08 -512.978 2372.52
-1311.21 -514.453 2379.35
-1343.58 -518.674 2398.87
-1354.28 -514.53 2379.7
0 0 0
0 0 0
0 0 0
1260.03 -596.267 2647.42
1222.49 -589.661 2618.1
1177.57 -579.169 2571.51
1117.24 -560.526 2488.74
1094 -560.106 2486.87
1069.56 -559.044 2482.16
1051.23 -561.196 2491.71
1017.38 -554.973 2464.08
985.358 -549.497 2439.77
962.652 -549.083 2437.93
946.261 -552.335 2452.37
924.065 -552.274 2452.1
904.859 -554.041 2459.94
869.615 -545.829 2423.48
853.639 -549.6 2440.22
826.612 -546.268 2425.43
804.396 -546.019 2424.33
784.851 -547.621 2431.44
762.213 -547.095 2429.1
736.716 -544.425 2417.25
712.477 -542.55 2408.92
690.487 -542.324 2407.92
667.424 -541.213 2402.99
648.457 -543.461 2412.97
622.894 -540.144 2398.24
602.053 -540.831 2401.29
576.301 -536.993 2384.25
558.107 -540.173 2398.37
535.156 -538.82 2392.36
514.527 -539.789 2396.66
491.231 -537.923 2388.38
469.364 -537.522 2386.6
448.577 -538.378 2390.4
427.52 -538.982 2393.08
404.101 -536.513 2382.12
383.789 -538.122 2389.26
361.86 -537.522 2386.6
340.091 -537.099 2384.72
318.719 -537.288 2385.56
298.517 -539.619 2395.91
275.421 -536.674 2382.83
253.986 -536.742 2383.14
232.245 -536.114 2380.35
210.967 -536.538 2382.23
189.177 -535.608 2378.1
167.723 -535.513 2377.68
146.744 -537.131 2384.86
124.45 -533.662 2369.46
103.528 -535.857 2379.21
82.289 -537.134 2384.88
60.3966 -533.538 2368.91
39.2711 -536.49 2382.02
17.7331 -534.128 2371.53
-3.63213 -534.142 2371.59
-25.1302 -536.971 2384.15
-46.4504 -535.144 2376.04
-67.508 -532.398 2363.85
-89.0718 -534.004 2370.98
-111.209 -537.762 2387.66
-132.066 -535.114 2375.91
-153.015 -533.524 2368.85
-174.754 -534.743 2374.26
-195.933 -534.168 2371.71
-217.94 -535.742 2378.69
-238.588 -533.992 2370.93
-261.205 -536.575 2382.39
-281.015 -533.437 2368.46
-303.644 -535.717 2378.58
-325.107 -535.773 2378.83
-345.986 -534.92 2375.04
-368.263 -536.201 2380.73
-388.088 -533.968 2370.82
-410.866 -535.819 2379.04
-432.534 -536.111 2380.33
-453.826 -535.931 2379.53
-474.688 -535.282 2376.65
-496.661 -535.888 2379.34
-516.774 -534.52 2373.27
-542.144 -538.482 2390.86
-559.707 -534.683 2373.99
-580.889 -534.495 2373.16
-603.699 -535.764 2378.79
-625.319 -535.926 2379.51
-648.189 -537.114 2384.79
-667.139 -535.081 2375.76
-688.885 -535.348 2376.94
-710.325 -535.367 2377.03
-733.155 -536.403 2381.63
-754.832 -536.56 2382.32
-774.046 -535.006 2375.43
-798.066 -536.768 2383.25
-816.754 -534.945 2375.16
-838.515 -535.177 2376.18
-858.575 -534.338 2372.46
-882.944 -536.158 2380.54
-904.26 -536.08 2380.2
-927.644 -537.204 2385.19
-949.241 -537.266 2385.46
-966.727 -535.049 2375.62
-986.259 -534.037 2371.12
-1007.96 -534.218 2371.93
-1028.84 -533.964 2370.8
-1057.98 -537.917 2388.35
-1072.39 -534.377 2372.63
-1092.25 -533.636 2369.35
-1117.42 -535.469 2377.48
-1139.68 -535.867 2379.25
-1160.2 -535.442 2377.36
-1182.8 -535.98 2379.75
-1209.81 -538.459 2390.76
-1222.55 -534.61 2373.67
-1244.54 -534.871 2374.83
-1262.79 -533.544 2368.94
-1299.6 -539.971 2397.47
-1311.65 -536.069 2380.15
-1359.36 -546.632 2427.05
-1375.62 -544.413 2417.19
0 0 0
0 0 0
1263.83 -610.435 2606.09
1233.61 -607.113 2591.91
1205.6 -604.776 2581.93
1180.93 -604.057 2578.86
1121.81 -585.33 2498.91
1086.67 -578.609 2470.21
1053.08 -572.444 2443.89
1037.69 -576.123 2459.6
1005.21 -570.271 2434.62
985.512 -571.566 2440.15
962.441 -570.921 2437.39
932.675 -566.181 2417.16
922.466 -573.371 2447.85
895.53 -570.261 2434.58
866.444 -565.592 2414.64
849.557 -568.851 2428.56
827.67 -568.845 2428.53
803.58 -567.284 2421.87
783.448 -568.508 2427.09
760.259 -567.521 2422.88
733.679 -563.868 2407.28
716.72 -567.612 2423.27
686.809 -561.013 2395.09
664.897 -560.731 2393.89
647.012 -563.94 2407.59
623.95 -562.702 2402.31
601.411 -561.865 2398.73
577.519 -559.653 2389.29
557.948 -561.62 2397.69
536.919 -562.219 2400.24
515.809 -562.78 2402.64
494.82 -563.526 2405.82
470.92 -560.876 2394.51
447.904 -559.074 2386.81
425.849 -558.349 2383.72
405.61 -560.057 2391.01
382.898 -558.349 2383.72
361.019 -557.723 2381.05
339.573 -557.733 2381.09
317.33 -556.344 2375.16
296.856 -558.08 2382.57
273.992 -555.245 2370.47
253.287 -556.674 2376.57
232.455 -558.063 2382.5
210.813 -557.594 2380.5
189.503 -557.991 2382.19
167.806 -557.21 2378.86
146.158 -556.384 2375.33
125.177 -558.249 2383.29
103.917 -559.389 2388.16
82.1276 -557.524 2380.2
60.4517 -555.386 2371.07
39.194 -556.854 2377.34
17.8293 -558.508 2384.4
-3.6235 -554.189 2365.96
-25.0193 -555.984 2373.63
-46.3783 -555.685 2372.35
-68.0704 -558.307 2383.54
-89.2261 -556.326 2375.08
-110.719 -556.81 2377.15
-132.294 -557.478 2380
-153.406 -556.283 2374.9
-174.27 -554.591 2367.68
-196.673 -557.634 2380.67
-217.071 -554.95 2369.21
-238.514 -555.18 2370.19
-261.122 -557.861 2381.64
-281.732 -556.192 2374.51
-302.687 -555.389 2371.08
-324.348 -555.903 2373.28
-345.741 -555.923 2373.36
-366.662 -555.225 2370.39
-388.447 -555.84 2373.01
-408.921 -554.613 2367.77
-431.885 -556.718 2376.76
-453.33 -556.759 2376.93
-474.744 -556.759 2376.93
-496.521 -557.166 2378.67
-517.047 -556.195 2374.52
-538.326 -556.078 2374.02
-558.439 -554.811 2368.62
-581.896 -556.839 2377.27
-601.382 -555.056 2369.66
-623.671 -555.894 2373.24
-645.72 -556.471 2375.7
-665.92 -555.468 2371.42
-687.089 -555.31 2370.75
-708.759 -555.554 2371.79
-729.538 -555.106 2369.88
-750.825 -555.06 2369.68
-770.246 -553.674 2363.76
-792.93 -554.645 2367.91
-813.407 -554.063 2365.42
-838.667 -556.685 2376.62
-858.404 -555.601 2371.99
-881.41 -556.635 2376.4
-900.964 -555.491 2371.52
-920.385 -554.32 2366.52
-942.562 -554.825 2368.68
-965.454 -555.719 2372.49
-986.848 -555.73 2372.54
-1005.89 -554.445 2367.05
-1032.97 -557.548 2380.3
-1053.45 -557.042 2378.14
-1067 -552.959 2360.71
-1094.56 -556.155 2374.36
-1111.86 -554.117 2365.65
-1139.11 -557.023 2378.06
-1154.05 -553.908 2364.76
-1186.15 -558.996 2386.48
-1202.15 -556.453 2375.62
-1222.87 -556.141 2374.3
-1244.42 -556.211 2374.59
-1261.76 -554.432 2367
-1284.54 -555.06 2369.68
-1307.29 -555.657 2372.23
-1329.54 -556.024 2373.79
-1385.19 -570.127 2434
0 0 0
0 0 0
1261.31 -632.645 2600.87
1209.3 -618.039 2540.83
1179.19 -614.279 2525.37
1152.5 -612.19 2516.78
1100.3 -596.189 2451
1089.91 -602.656 2477.58
1062.46 -599.755 2465.66
1025.26 -591.118 2430.15
1007.92 -593.8 2441.18
978.297 -589.204 2422.28
955.004 -588.298 2418.56
931.715 -587.353 2414.67
914.967 -590.584 2427.96
888.531 -587.566 2415.55
863.228 -585.166 2405.68
841.573 -585.178 2405.73
823.953 -588.071 2417.63
799.339 -585.994 2409.09
779.903 -587.703 2416.11
755.346 -585.539 2407.22
731.456 -583.781 2399.99
716.203 -589.018 2421.52
691.687 -586.728 2412.1
664.159 -581.65 2391.23
640.981 -580.17 2385.14
620.801 -581.395 2390.18
596.944 -579.141 2380.91
580.751 -584.431 2402.66
555.105 -580.249 2385.47
536.089 -582.94 2396.53
513.579 -581.898 2392.25
492.089 -581.971 2392.55
471.498 -583.163 2397.45
446.664 -578.969 2380.21
426.376 -580.543 2386.68
403.181 -578.115 2376.69
384.452 -582.176 2393.39
361.612 -580.126 2384.96
338.622 -577.56 2374.42
317.725 -578.462 2378.12
297.222 -580.261 2385.52
274.224 -577.088 2372.47
253.086 -577.627 2374.69
231.986 -578.359 2377.7
210.902 -579.284 2381.5
189.197 -578.517 2378.35
167.466 -577.47 2374.04
146.339 -578.501 2378.28
124.566 -576.892 2371.67
103.326 -577.6 2374.58
82.0613 -578.5 2378.28
60.5023 -577.23 2373.06
39.1304 -577.333 2373.48
17.7422 -577.155 2372.75
-3.63251 -576.934 2371.84
-24.9582 -575.959 2367.83
-46.284 -575.885 2367.53
-67.7657 -577.185 2372.87
-88.9355 -575.842 2367.35
-110.088 -574.928 2363.59
-131.486 -575.387 2365.48
-152.782 -575.329 2365.24
-173.846 -574.521 2361.92
-195.556 -575.791 2367.14
-217.431 -577.251 2373.14
-238.228 -575.842 2367.35
-260.068 -576.978 2372.02
-282.084 -578.303 2377.47
-302.204 -575.83 2367.3
-323.305 -575.428 2365.65
-345.333 -576.622 2370.56
-368.46 -579.407 2382.01
-388.148 -576.774 2371.18
-408.774 -575.738 2366.92
-431.207 -577.224 2373.03
-453.35 -578.198 2377.04
-474.005 -577.272 2373.23
-495.75 -577.698 2374.98
-514.592 -574.844 2363.25
-539.649 -578.885 2379.86
-558.253 -575.959 2367.83
-578.463 -574.844 2363.25
-602.145 -577.136 2372.67
-621.491 -575.257 2364.95
-642.45 -574.947 2363.67
-665.45 -576.425 2369.75
-684.44 -574.445 2361.61
-707.988 -576.294 2369.21
-728.75 -575.834 2367.32
-746.783 -573.305 2356.92
-770.332 -575.034 2364.03
-793.948 -576.717 2370.95
-813.188 -575.218 2364.78
-835.52 -575.926 2367.7
-852.871 -573.251 2356.7
-874.739 -573.669 2358.42
-897.967 -574.937 2363.63
-922.283 -576.827 2371.4
-939.814 -574.484 2361.77
-963.757 -576.078 2368.32
-982.501 -574.562 2362.09
-1007.2 -576.517 2370.13
-1024.19 -574.073 2360.08
-1044.13 -573.35 2357.1
-1070.01 -575.845 2367.36
-1094.34 -577.431 2373.88
-1110.82 -574.891 2363.44
-1131.72 -574.695 2362.64
-1152.99 -574.684 2362.59
-1179.84 -577.411 2373.8
-1193.57 -573.727 2358.66
-1223.57 -577.861 2375.65
-1242.41 -576.672 2370.76
-1260.2 -575.044 2364.07
-1275.5 -572.355 2353.01
-1297.2 -572.575 2353.92
-1327.45 -576.504 2370.07
-1351.58 -577.689 2374.94
0 0 0
0 0 0
1311.48 -682.173 2704.33
1198.4 -635.155 2517.94
1188.27 -641.936 2544.82
1144.39 -630.397 2499.07
1131.08 -635.568 2519.57
1098.57 -629.94 2497.26
1061.33 -621.308 2463.04
1036.67 -619.831 2457.19
1006.47 -614.905 2437.66
981.621 -613.102 2430.51
953.612 -609.198 2415.03
934.904 -611.191 2422.94
914.988 -612.471 2428.01
892.25 -611.878 2425.66
870.483 -611.939 2425.9
846.733 -610.572 2420.48
821.451 -608 2410.29
804.249 -611.43 2423.88
775.723 -606.203 2403.16
756.513 -608.165 2410.94
734.011 -607.517 2408.37
714.261 -609.178 2414.96
691.678 -608.451 2412.07
666.499 -605.318 2399.65
645.267 -605.682 2401.1
623.726 -605.769 2401.44
600.248 -603.915 2394.09
580.051 -605.346 2399.76
556.637 -603.4 2392.05
533.53 -601.645 2385.09
513.36 -603.193 2391.23
491.29 -602.546 2388.66
470.542 -603.536 2392.59
448.262 -602.561 2388.72
427.384 -603.468 2392.32
404.304 -601.196 2383.31
382.586 -600.808 2381.78
361.305 -601.101 2382.94
339.43 -600.382 2380.09
318.611 -601.558 2384.75
295.887 -599.049 2374.8
274.657 -599.407 2376.22
253.896 -600.938 2382.29
231.597 -598.774 2373.71
210.291 -598.999 2374.6
189.417 -600.642 2381.12
167.867 -600.29 2379.72
146.629 -601.113 2382.98
125.373 -602.135 2387.04
103.152 -597.981 2370.57
82.1566 -600.623 2381.04
60.4741 -598.33 2371.95
39.24 -600.393 2380.13
17.7412 -598.497 2372.61
-3.62933 -597.778 2369.76
-25.0693 -599.949 2378.37
-46.3764 -598.405 2372.25
-67.7065 -598.039 2370.8
-89.0037 -597.627 2369.17
-110.353 -597.659 2369.29
-131.911 -598.622 2373.11
-153.087 -597.831 2369.97
-175.405 -601.142 2383.1
-196.026 -598.552 2372.83
-216.978 -597.383 2368.2
-238.995 -599.092 2374.97
-260.373 -599.051 2374.81
-282.184 -599.937 2378.32
-302.316 -597.378 2368.18
-324.74 -599.388 2376.14
-346.58 -600.138 2379.12
-367.852 -599.875 2378.07
-388.607 -598.843 2373.99
-409.59 -598.254 2371.65
-431.196 -598.587 2372.97
-454.43 -601.041 2382.7
-475.136 -600.082 2378.9
-496.535 -600.043 2378.74
-517.689 -599.722 2377.47
-537.494 -597.928 2370.36
-560.036 -599.198 2375.39
-581.931 -599.708 2377.42
-602.147 -598.513 2372.68
-621.747 -596.809 2365.92
-644.502 -598.145 2371.22
-664.149 -596.605 2365.11
-687.436 -598.328 2371.94
-710.234 -599.535 2376.73
-729.632 -597.884 2370.18
-752.398 -599.009 2374.64
-769.162 -595.426 2360.44
-791.513 -596.243 2363.68
-816.395 -598.875 2374.11
-836.863 -598.217 2371.5
-856.573 -597.064 2366.93
-881.573 -599.564 2376.84
-901.491 -598.571 2372.91
-922.704 -598.465 2372.48
-942.775 -597.639 2369.21
-964.942 -598.149 2371.23
-985.214 -597.487 2368.61
-1007.67 -598.153 2371.25
-1034 -601.036 2382.68
-1052.94 -599.598 2376.98
-1072.13 -598.361 2372.07
-1093.24 -598.216 2371.5
-1111.37 -596.482 2364.63
-1133.98 -597.169 2367.35
-1155.71 -597.378 2368.18
-1173.49 -595.573 2361.02
-1199.03 -597.702 2369.46
-1221.96 -598.475 2372.52
-1243.05 -598.34 2371.99
-1273.26 -602.524 2388.58
-1287.83 -599.288 2375.75
-1312.52 -600.793 2381.72
-1331.5 -599.68 2377.3
-1369.21 -606.901 2405.93
0 0 0
0 0 0
1255.63 -676.448 2589.16
1208.39 -663.322 2538.92
1206.72 -675.183 2584.32
1144.35 -652.883 2498.97
1132.21 -658.922 2522.08
1092.64 -648.915 2483.78
1057.83 -641.376 2454.92
1037.01 -642.18 2458
1006.07 -636.614 2436.7
984.142 -636.63 2436.76
958.589 -634.248 2427.64
938.372 -635.368 2431.92
912.895 -632.894 2422.46
889.863 -632.036 2419.17
868.471 -632.329 2420.29
841.239 -628.276 2404.78
822.977 -630.884 2414.76
798.695 -628.894 2407.15
782.24 -633.128 2423.35
756.465 -629.844 2410.78
730.284 -626.02 2396.14
713.106 -629.913 2411.05
687.345 -626.233 2396.96
668.006 -628.355 2405.08
640.686 -622.859 2384.05
621.967 -625.634 2394.67
600.198 -625.431 2393.89
580.453 -627.4 2401.43
557.245 -625.634 2394.67
534.752 -624.559 2390.55
514.531 -626.16 2396.68
490.851 -623.508 2386.53
470.119 -624.528 2390.43
446.25 -621.279 2378
425.293 -621.961 2380.61
405.233 -624.097 2388.78
382.391 -621.948 2380.56
360.683 -621.498 2378.84
339.529 -622.004 2380.77
318.188 -622.215 2381.58
296.452 -621.627 2379.33
276.625 -625.263 2393.25
254.172 -623.077 2384.88
233.167 -624.363 2389.8
210.522 -621.072 2377.21
189.162 -621.257 2377.92
167.437 -620.135 2373.62
146.074 -620.227 2373.97
124.747 -620.524 2375.11
103.223 -619.765 2372.2
81.8119 -619.463 2371.05
60.5404 -620.378 2374.55
39.1071 -619.73 2372.07
17.8185 -622.573 2382.95
-3.62146 -617.786 2364.63
-24.9843 -619.271 2370.31
-46.3515 -619.445 2370.98
-68.0294 -622.352 2382.1
-88.92 -618.389 2366.94
-110.295 -618.675 2368.03
-132.216 -621.438 2378.61
-153.318 -620.115 2373.54
-174.316 -618.747 2368.31
-196.321 -620.862 2376.4
-217.041 -618.898 2368.89
-238.772 -619.911 2372.76
-260.448 -620.624 2375.49
-281.809 -620.536 2375.15
-302.161 -618.396 2366.96
-324.31 -619.973 2373
-345.703 -620 2373.1
-366.924 -619.731 2372.08
-389.036 -620.917 2376.61
-410.869 -621.555 2379.06
-432.021 -621.151 2377.51
-454.203 -622.196 2381.51
-474.523 -620.711 2375.83
-495.699 -620.426 2374.74
-517.027 -620.347 2374.43
-537.883 -619.73 2372.07
-559.994 -620.552 2375.21
-579.815 -618.868 2368.77
-599.009 -616.658 2360.31
-620.974 -617.355 2362.98
-643.958 -618.985 2369.22
-665.168 -618.86 2368.74
-684.705 -617.235 2362.52
-705.758 -617.033 2361.75
-728.465 -618.247 2366.39
-745.925 -615.065 2354.21
-775.163 -621.502 2378.85
-792.426 -618.25 2366.4
-813.224 -617.854 2364.89
-835.884 -618.857 2368.73
-855.25 -617.432 2363.28
-877.178 -617.881 2364.99
-901.84 -620.189 2373.83
-921.657 -619.135 2369.79
-939.918 -617.107 2362.03
-961.3 -617.173 2362.28
-987.483 -620.252 2374.07
-1004.29 -617.432 2363.28
-1024.74 -616.927 2361.34
-1055.34 -622.431 2382.41
-1070.18 -618.603 2367.76
-1086.38 -615.69 2356.61
-1111.03 -617.596 2363.9
-1131.54 -617.164 2362.25
-1150.68 -616.017 2357.86
-1166.66 -613.252 2347.27
-1201.33 -620.237 2374.01
-1217.16 -617.415 2363.21
-1236.84 -616.612 2360.14
-1251.83 -613.539 2348.37
-1284.71 -619.188 2370
-1297.6 -615.178 2354.65
-1330.7 -620.724 2375.87
-1348.61 -619.116 2369.72
0 0 0
0 0 0
1288.94 -718.34 2657.86
1248.75 -709.112 2623.71
1206.12 -698.121 2583.05
1160.4 -684.873 2534.03
1126.1 -677.968 2508.48
1097.61 -674.344 2495.07
1062.73 -666.565 2466.29
1048.98 -671.992 2486.37
1008.2 -659.963 2441.86
978.239 -654.632 2422.14
964.912 -660.447 2443.65
933.39 -653.787 2419.01
907.334 -650.729 2407.7
886.759 -651.55 2410.73
874.595 -658.746 2437.36
844.352 -652.345 2413.68
826.944 -655.784 2426.4
806.228 -656.716 2429.85
779.16 -652.381 2413.81
763.904 -657.971 2434.49
737.251 -653.784 2419
709.436 -648.282 2398.64
689.921 -650.255 2405.95
670.499 -652.447 2414.06
646.628 -650.313 2406.16
624.794 -650.15 2405.56
604.107 -651.211 2409.48
580.587 -649.184 2401.98
559.348 -649.65 2403.7
536.777 -648.542 2399.61
514.038 -647.131 2394.38
490.575 -644.646 2385.19
468.173 -643.389 2380.54
449.563 -647.474 2395.65
425.9 -644.326 2384.01
405.806 -646.53 2392.16
383.855 -645.858 2389.68
363.66 -648.235 2398.47
340.694 -645.661 2388.94
318.64 -644.585 2384.97
296.158 -642.424 2376.97
275.571 -644.36 2384.13
254.532 -645.473 2388.25
231.526 -641.346 2372.98
210.396 -642.103 2375.78
190.12 -645.935 2389.96
167.2 -640.613 2370.27
146.757 -644.614 2385.07
125.127 -643.879 2382.35
104.126 -646.745 2392.96
82.2952 -644.61 2385.06
60.4544 -640.859 2371.18
39.1471 -641.755 2374.49
17.8148 -643.907 2382.45
-3.65181 -644.445 2384.44
-24.9489 -639.716 2366.95
-46.4178 -641.722 2374.37
-67.6847 -640.549 2370.03
-89.0116 -640.372 2369.37
-110.678 -642.231 2376.25
-131.547 -639.611 2366.56
-154.159 -645.019 2386.57
-175.063 -642.825 2378.45
-196.362 -642.406 2376.9
-218.675 -645.058 2386.71
-239.018 -641.945 2375.2
-259.346 -639.309 2365.44
-281.074 -640.259 2368.96
-303.086 -641.678 2374.21
-325.168 -643.047 2379.28
-346.339 -642.558 2377.46
-367.747 -642.539 2377.39
-388.188 -640.928 2371.43
-411.292 -643.649 2381.5
-431.431 -641.692 2374.26
-452.316 -640.977 2371.62
-474.637 -642.269 2376.4
-499.179 -646.325 2391.4
-516.744 -641.386 2373.13
-539.089 -642.537 2377.39
-560.359 -642.368 2376.76
-579.278 -639.616 2366.58
-599.412 -638.351 2361.9
-622.621 -640.337 2369.25
-642.866 -639.244 2365.2
-665.615 -640.631 2370.33
-688.136 -641.719 2374.36
-707.906 -640.253 2368.94
-728.11 -639.253 2365.24
-750.251 -639.964 2367.87
-772.987 -641.129 2372.18
-795.437 -641.999 2375.4
-818.834 -643.569 2381.2
-838.081 -641.88 2374.96
-862.123 -643.856 2382.27
-883.532 -643.817 2382.12
-900.753 -640.801 2370.96
-923.367 -641.673 2374.19
-944.902 -641.772 2374.56
-967.118 -642.319 2376.58
-986.329 -640.89 2371.29
-1010.34 -642.571 2377.51
-1026.27 -639.153 2364.87
-1058.07 -645.557 2388.56
-1074.57 -642.56 2377.47
-1094.11 -641.455 2373.38
-1114.76 -641.036 2371.83
-1127.36 -636.086 2353.52
-1157.95 -641.287 2372.76
-1181.41 -642.421 2376.96
-1193.9 -637.654 2359.32
-1218.54 -639.431 2365.89
-1242.77 -640.931 2371.44
-1259.69 -638.678 2363.11
-1278.75 -637.567 2359
-1323.52 -649.103 2401.68
-1331.73 -642.625 2377.71
-1379.03 -654.916 2423.19
0 0 0
0 0 0
0 0 0
1239.29 -727.2 2603.85
1162.39 -695.235 2489.39
1157.77 -706.094 2528.27
1126.3 -700.691 2508.93
1085.32 -689.024 2467.15
1062.18 -688.427 2465.01
1030.72 -682.306 2443.1
1004.72 -679.609 2433.44
985.349 -681.37 2439.74
957.287 -677.068 2424.34
934.64 -676.485 2422.25
904.467 -670.296 2400.09
887.954 -674.175 2413.98
866.919 -674.73 2415.97
841.97 -672.189 2406.87
822.733 -674.193 2414.05
794.806 -668.992 2395.42
782.871 -677.337 2425.3
761.716 -677.956 2427.52
736.817 -675.18 2417.58
712.311 -672.606 2408.36
686.85 -668.94 2395.24
669.835 -673.529 2411.67
646.989 -672.365 2407.5
623.685 -670.629 2401.29
597.865 -665.966 2384.59
580.001 -670.146 2399.56
557.03 -668.523 2393.74
538.757 -672.632 2408.46
517.562 -673.286 2410.8
491.239 -667.035 2388.42
474.95 -674.46 2415
448.918 -668.096 2392.22
429.358 -671.209 2403.36
404.252 -665.524 2383
383.605 -666.952 2388.12
362.119 -667.005 2388.31
339.925 -665.677 2383.55
317.919 -664.565 2379.57
297.393 -666.607 2386.88
275.499 -665.663 2383.5
253.646 -664.669 2379.94
233.337 -667.909 2391.54
209.576 -660.92 2366.52
189.38 -664.868 2380.66
167.224 -662.063 2370.61
147.131 -667.797 2391.14
125.295 -666.234 2385.55
103.51 -664.351 2378.8
81.7741 -661.879 2369.95
60.5119 -662.851 2373.43
39.0254 -661.085 2367.11
17.7594 -663.303 2375.05
-3.63752 -663.319 2375.11
-25.0641 -664.093 2377.88
-46.4994 -664.278 2378.54
-67.6666 -661.725 2369.4
-89.2773 -663.693 2376.45
-110.2 -660.772 2365.99
-132.047 -663.446 2375.56
-153.123 -662.04 2370.53
-174.026 -660.318 2364.36
-196.31 -663.643 2376.27
-217.385 -662.628 2372.64
-238.473 -661.833 2369.79
-260.437 -663.397 2375.39
-281.344 -662.238 2371.24
-303.376 -663.702 2376.48
-323.911 -661.914 2370.08
-345.141 -661.68 2369.24
-365.741 -660.335 2364.43
-389.809 -665.058 2381.33
-410.044 -663.086 2374.28
-430.986 -662.397 2371.81
-453.117 -663.516 2375.81
-473.585 -662.207 2371.13
-494.331 -661.383 2368.18
-517.248 -663.413 2375.44
-537.479 -661.973 2370.29
-556.476 -659.181 2360.29
-579.394 -661.068 2367.05
-597.874 -657.938 2355.84
-624.466 -663.642 2376.27
-643.762 -661.473 2368.5
-665.756 -662.125 2370.84
-686.4 -661.436 2368.37
-708.893 -662.517 2372.24
-727.424 -659.94 2363.01
-748.673 -659.906 2362.89
-769.873 -659.83 2362.62
-792.246 -660.738 2365.87
-816.509 -663.133 2374.44
-836.032 -661.654 2369.15
-855.419 -660.144 2363.74
-881.394 -663.668 2376.36
-897.896 -660.061 2363.44
-920.454 -660.97 2366.7
-945.155 -663.342 2375.19
-961.177 -659.652 2361.98
-981.772 -659.193 2360.34
-1007.21 -661.936 2370.16
-1022.72 -658.173 2356.68
-1052.09 -663.305 2375.06
-1072.1 -662.449 2372
-1087.95 -659.105 2360.02
-1110.98 -660.16 2363.8
-1130.67 -659.219 2360.43
-1155.77 -661.415 2368.29
-1173.16 -659.197 2360.35
-1195.19 -659.62 2361.87
-1209.63 -655.912 2348.59
-1239.14 -660.362 2364.52
-1265.62 -663.074 2374.23
-1288.93 -664.068 2377.79
-1308.49 -663.122 2374.41
-1329.84 -663.1 2374.33
-1368.91 -671.776 2405.39
0 0 0
0 0 0
0 0 0
1246.85 -755.237 2619.73
1179.75 -728.382 2526.57
1144.6 -720.583 2499.52
1123.27 -721.345 2502.16
1087.43 -712.632 2471.94
1048.94 -701.779 2434.3
1036.14 -708.021 2455.95
1004.52 -701.387 2432.94
982.963 -701.647 2433.84
957.793 -699.278 2425.62
932.699 -696.856 2417.22
914.835 -699.85 2427.6
886.755 -694.983 2410.72
863.785 -693.977 2407.23
843.05 -694.762 2409.96
826.268 -698.931 2424.42
799.48 -694.634 2409.51
783.257 -699.531 2426.5
763.242 -701.227 2432.38
735.495 -695.709 2413.24
715.948 -697.848 2420.66
691.717 -695.411 2412.21
671.194 -696.666 2416.56
646.555 -693.589 2405.89
620.361 -688.572 2388.49
603.088 -693.454 2405.42
580.058 -691.832 2399.79
558.613 -692.049 2400.55
530.185 -683.283 2370.14
514.772 -691.259 2397.81
489.346 -685.899 2379.21
468.667 -687.007 2383.05
446.293 -685.616 2378.23
426.511 -688.268 2387.43
405.252 -688.691 2388.9
381.804 -685.235 2376.91
360.272 -685.009 2376.12
341.037 -689.399 2391.35
320.109 -690.727 2395.96
296.581 -686.232 2380.37
274.525 -684.706 2375.08
255.396 -690.843 2396.36
232.231 -686.184 2380.2
210.78 -686.16 2380.12
189.24 -685.808 2378.9
167.237 -683.47 2370.79
146.312 -685.503 2377.84
125 -686.104 2379.92
103.099 -683.056 2369.35
81.1834 -678.294 2352.83
60.467 -683.725 2371.67
39.2183 -685.783 2378.81
17.7965 -686.129 2380.01
-3.63922 -685.037 2376.22
-25.015 -684.172 2373.22
-46.2769 -682.425 2367.16
-67.7263 -683.673 2371.49
-88.8502 -681.824 2365.08
-110.074 -681.309 2363.29
-131.683 -682.957 2369.01
-152.701 -681.511 2363.99
-174.181 -682.226 2366.47
-195.612 -682.614 2367.82
-216.612 -681.571 2364.2
-238.396 -682.961 2369.02
-259.828 -683.197 2369.84
-282.5 -686.409 2380.98
-302.183 -682.417 2367.13
-324.46 -684.425 2374.1
-346.282 -685.283 2377.07
-367.982 -685.815 2378.92
-387.823 -683.012 2369.2
-408.282 -681.535 2364.08
-431.889 -685.199 2376.78
-452.261 -683.626 2371.33
-472.694 -682.283 2366.67
-494.191 -682.525 2367.51
-515.258 -682.178 2366.3
-536.266 -681.785 2364.94
-556.993 -681.077 2362.48
-581.759 -685.179 2376.71
-601.042 -682.76 2368.32
-625.527 -686.214 2380.3
-644.612 -683.712 2371.63
-662.466 -680.106 2359.12
-682.48 -678.874 2354.84
-710.105 -685.058 2376.29
-726.694 -680.545 2360.64
-746.472 -679.19 2355.94
-772.1 -683.086 2369.45
-794.532 -684.02 2372.69
-813.514 -682.014 2365.73
-835.224 -682.338 2366.86
-855.586 -681.572 2364.2
-878.539 -682.858 2368.66
-903.225 -685.397 2377.47
-919.245 -681.396 2363.59
-939.993 -681 2362.22
-961.028 -680.826 2361.61
-987.195 -684.215 2373.37
-1005.17 -681.905 2365.36
-1029.89 -684.173 2373.23
-1046.85 -681.293 2363.23
-1065.98 -679.918 2358.47
-1095.12 -684.848 2375.57
-1113.74 -683.147 2369.67
-1131.81 -681.17 2362.81
-1156.08 -682.934 2368.93
-1172.19 -679.902 2358.41
-1196.4 -681.59 2364.27
-1217.09 -681.247 2363.08
-1234.55 -679.142 2355.77
-1260.06 -681.457 2363.8
-1285.15 -683.478 2370.82
-1316.37 -688.636 2388.71
-1334.98 -687.14 2383.52
-1347.23 -682.464 2367.3
0 0 0
0 0 0
0 0 0
1279.21 -799.053 2687.72
1222.3 -778.237 2617.71
1180.05 -766.118 2576.94
1146.27 -759.117 2553.39
1114.33 -753.081 2533.09
1064.33 -734.325 2470
1049.35 -739.456 2487.26
1021.55 -735.567 2474.18
986.305 -726.033 2442.11
974.522 -733.726 2467.99
950.134 -732.067 2462.41
924.422 -729.284 2453.04
890.162 -719.455 2419.98
871.668 -722.196 2429.2
854.564 -726.259 2442.87
837.809 -730.841 2458.28
812.266 -727.798 2448.05
785.66 -723.606 2433.95
762.696 -722.623 2430.64
736.094 -718.034 2415.21
713.522 -717.217 2412.46
692.277 -717.723 2414.16
670.188 -717.36 2412.94
647.828 -716.672 2410.62
628.365 -719.253 2419.3
607.546 -720.411 2423.2
579.173 -712.364 2396.13
559.499 -714.807 2404.35
538.18 -715.261 2405.88
511.962 -708.969 2384.71
490.525 -709.037 2384.94
473.868 -716.337 2409.5
451.972 -716.037 2408.49
430.063 -715.687 2407.31
407.022 -713.316 2399.34
383.486 -709.761 2387.38
362.292 -710.377 2389.45
340.766 -710.379 2389.46
318.583 -708.916 2384.54
298.362 -711.926 2394.66
276.619 -711.492 2393.2
254.173 -709.021 2384.89
233.255 -710.749 2390.7
211.033 -708.453 2382.98
190.836 -713.205 2398.96
167.845 -707.391 2379.41
146.429 -707.492 2379.74
124.848 -706.686 2377.04
103.683 -708.39 2382.77
82.4741 -710.612 2390.24
60.6868 -707.655 2380.29
39.0757 -704.643 2370.16
17.7031 -703.858 2367.52
-3.6392 -706.441 2376.21
-25.025 -705.835 2374.17
-47.9445 -729.111 2452.46
-68.1094 -709.025 2384.9
-89.3906 -707.408 2379.46
-111.056 -708.87 2384.38
-132.162 -706.864 2377.63
-153.382 -705.944 2374.54
-174.957 -706.68 2377.01
-196.798 -708.214 2382.17
-218.015 -707.423 2379.51
-238.591 -704.88 2370.96
-260.772 -707.107 2378.45
-281.936 -706.447 2376.23
-302.675 -704.888 2370.99
-324.336 -705.543 2373.19
-346.841 -707.838 2380.91
-366.522 -704.44 2369.48
-388.455 -705.504 2373.06
-411.238 -707.921 2381.19
-433.618 -709.439 2386.29
-452.278 -705.016 2371.42
-473.844 -705.316 2372.43
-496.962 -707.801 2380.78
-517.329 -706.324 2375.82
-537.785 -705.082 2371.64
-563.863 -711.024 2391.62
-581.107 -705.798 2374.05
-604.865 -708.575 2383.39
-625.81 -707.978 2381.38
-648.442 -709.267 2385.72
-665.646 -704.726 2370.44
-688.17 -705.925 2374.48
-705.759 -702.142 2361.75
-728.751 -703.798 2367.32
-754.985 -708.402 2382.81
-772.779 -705.051 2371.54
-794.923 -705.743 2373.86
-816.43 -705.847 2374.21
-834.367 -702.938 2364.43
-859.632 -706.195 2375.38
-878.657 -704.291 2368.98
-903.001 -706.641 2376.88
-926.02 -707.868 2381.01
-944.417 -705.586 2373.34
-962.638 -703.278 2365.57
-986.98 -705.444 2372.86
-1010.62 -707.03 2378.19
-1034.29 -708.567 2383.36
-1054.86 -707.959 2381.32
-1078.12 -709.147 2385.31
-1095.32 -706.38 2376.01
-1120.53 -708.791 2384.11
-1142.47 -709.078 2385.08
-1161.4 -707.52 2379.84
-1184.93 -708.767 2384.03
-1200.16 -705.099 2371.7
-1222.68 -705.765 2373.94
-1253.71 -711.232 2392.32
-1276.74 -712.059 2395.11
-1293.76 -709.559 2386.7
-1319.48 -711.833 2394.35
-1345.24 -714.057 2401.83
-1382.06 -721.988 2428.51
0 0 0
0 0 0
0 0 0
0 0 0
0 0 0
1171.97 -783.93 2559.3
1146.22 -782.092 2553.3
1098.41 -764.813 2496.89
1090.63 -775.278 2531.05
1039.25 -754.529 2463.32
1015.31 -753.228 2459.07
998.939 -757.616 2473.39
969.927 -752.396 2456.35
948.745 -753.148 2458.81
924.42 -751.381 2453.04
897.149 -747.075 2438.98
877.841 -749.349 2446.4
856.458 -749.925 2448.28
823.841 -740.433 2417.3
808.918 -746.761 2437.96
782.106 -742.16 2422.93
768.426 -750.114 2448.9
738.322 -742.032 2422.52
718.137 -743.73 2428.06
699.4 -747.082 2439
678.64 -748.419 2443.37
652.04 -743.19 2426.3
624.964 -737.037 2406.21
602.853 -736.507 2404.48
584.335 -740.492 2417.49
556.218 -732.149 2390.25
537.736 -736.328 2403.89
513.353 -732.438 2391.19
498.033 -741.704 2421.45
473.098 -736.846 2405.58
449.116 -733.074 2393.27
424.813 -728.374 2377.93
405.075 -731.415 2387.85
382.098 -728.623 2378.74
360.979 -729.25 2380.79
341.42 -733.309 2394.04
319.83 -733.258 2393.87
295.027 -725.302 2367.9
276.269 -732.123 2390.17
254.358 -731.038 2386.62
233.051 -731.647 2388.61
210.765 -728.993 2379.95
190.061 -731.831 2389.21
168.775 -732.865 2392.59
146.83 -730.924 2386.25
125.29 -730.681 2385.46
103.467 -728.336 2377.8
82.335 -730.911 2386.21
60.7552 -729.921 2382.98
39.1361 -727.118 2373.83
17.8021 -729.24 2380.75
-3.64918 -729.844 2382.73
-25.0736 -728.636 2378.78
-46.4609 -727.96 2376.58
-67.8581 -727.816 2376.11
-89.1325 -726.74 2372.59
-110.647 -727.659 2375.59
-132.577 -730.571 2385.1
-153.68 -728.749 2379.15
-174.734 -727.167 2373.99
-195.917 -726.41 2371.52
-217.127 -725.893 2369.83
-238.194 -725.032 2367.02
-261.069 -729.362 2381.15
-282.258 -728.685 2378.94
-304.113 -729.701 2382.26
-324.579 -727.467 2374.97
-345.442 -726.347 2371.31
-367.824 -728.364 2377.9
-387.666 -725.406 2368.24
-410.078 -727.317 2374.48
-433.426 -730.614 2385.24
-454.059 -729.241 2380.76
-474.207 -727.245 2374.24
-497.534 -730.089 2383.53
-517.929 -728.572 2378.57
-539.049 -728.156 2377.21
-561.428 -729.406 2381.3
-581.559 -727.751 2375.89
-600.614 -724.916 2366.64
-625.076 -728.577 2378.59
-648.188 -730.474 2384.78
-666.435 -726.942 2373.25
-685.244 -724.225 2364.38
-713.202 -731.048 2386.66
-728.777 -725.151 2367.4
-753.844 -728.766 2379.21
-773.108 -726.726 2372.55
-793.129 -725.488 2368.5
-819.281 -729.777 2382.51
-835.7 -725.397 2368.21
-856.414 -724.871 2366.49
-883.065 -729.274 2380.87
-901.699 -727.004 2373.45
-922.253 -726.352 2371.32
-942.719 -725.661 2369.07
-965.997 -727.118 2373.83
-984.49 -724.987 2366.87
-1007.34 -726.085 2370.45
-1029.03 -726.325 2371.24
-1052.63 -727.873 2376.29
-1069.91 -725.072 2367.15
-1088.6 -723.321 2361.43
-1114.53 -726.353 2371.33
-1140.12 -729.062 2380.17
-1153.11 -723.755 2362.85
-1186.82 -731.408 2387.83
-1199.92 -726.319 2371.22
-1229.51 -731.214 2387.2
-1243.6 -726.875 2373.03
-1269.68 -729.578 2381.86
-1290.31 -729.107 2380.32
-1303.86 -724.72 2366
-1333.2 -729.109 2380.33
-1378.93 -742.181 2423
0 0 0
0 0 0
0 0 0
0 0 0
0 0 0
1212.29 -834.746 2647.34
1142.18 -802.254 2544.29
1121.17 -803.625 2548.64
1094.72 -801.068 2540.53
1054.14 -787.85 2498.61
1024.79 -782.625 2482.04
994.923 -776.764 2463.45
969.523 -774.203 2455.33
961.119 -785.412 2490.88
938.906 -785.601 2491.48
912.988 -782.625 2482.04
888.465 -780.725 2476.01
847.214 -763.649 2421.86
833.688 -771.321 2446.19
813.982 -773.537 2453.22
796.172 -777.729 2466.51
767.775 -771.522 2446.83
737.144 -762.638 2418.65
714.811 -762.059 2416.82
692.465 -761.429 2414.82
675.999 -767.433 2433.86
655.445 -769.044 2438.97
626.829 -760.978 2413.39
606.515 -762.775 2419.09
578.203 -754.272 2392.12
559.199 -757.723 2403.06
537.05 -757.018 2400.83
516.911 -759.206 2407.77
497.002 -761.939 2416.44
471.749 -756.354 2398.72
450.649 -757.211 2401.44
427.456 -754.46 2392.72
405.346 -753.431 2389.45
386.446 -758.588 2405.81
363.083 -755.073 2394.66
339.622 -750.901 2381.43
318.522 -751.737 2384.08
299.595 -758.194 2404.56
277.107 -755.942 2397.42
254.424 -752.733 2387.24
232.832 -752.459 2386.37
211.325 -752.429 2386.28
189.882 -752.645 2386.96
168.749 -754.305 2392.23
146.808 -752.31 2385.9
125.572 -753.862 2390.82
103.41 -749.351 2376.51
82.0924 -750.191 2379.18
61.0379 -754.885 2394.06
39.0521 -746.896 2368.73
17.7353 -747.872 2371.82
-3.65156 -751.8 2384.28
-25.0901 -750.56 2380.35
-46.5289 -750.467 2380.05
-67.9847 -750.62 2380.54
-89.2277 -748.914 2375.13
-110.587 -748.656 2374.31
-132.346 -750.746 2380.94
-153.167 -747.676 2371.2
-174.641 -748.155 2372.72
-196.127 -748.578 2374.06
-217.884 -749.845 2378.08
-239.407 -750.158 2379.07
-259.474 -746.228 2366.61
-281.098 -747.033 2369.16
-302.987 -748.379 2373.43
-326.996 -754.44 2392.65
-347.192 -751.499 2383.32
-369.095 -752.378 2386.11
-388.397 -748.151 2372.71
-410.523 -749.52 2377.05
-432.353 -750.241 2379.33
-452.402 -747.948 2372.06
-473.788 -747.974 2372.15
-496.899 -750.603 2380.49
-516.866 -748.462 2373.69
-536.891 -746.571 2367.7
-559.627 -748.45 2373.66
-581.517 -749.101 2375.72
-603.872 -750.285 2379.47
-622.361 -746.747 2368.26
-646.89 -750.453 2380.01
-666.142 -747.994 2372.21
-687.617 -748.107 2372.57
-708.779 -747.882 2371.86
-729.319 -747.035 2369.17
-753.239 -749.599 2377.3
-776.949 -751.817 2384.33
-792.815 -746.53 2367.57
-813.032 -745.511 2364.33
-835.699 -746.732 2368.21
-856.094 -745.912 2365.61
-878.062 -746.47 2367.38
-904.095 -750.375 2379.76
-920.534 -746.321 2366.9
-942.038 -746.464 2367.36
-966.751 -749.088 2375.68
-982.321 -744.666 2361.66
-1006.63 -746.918 2368.8
-1028.7 -747.449 2370.48
-1054.64 -750.707 2380.81
-1068 -745.069 2362.93
-1094.32 -748.51 2373.85
-1113.39 -746.952 2368.91
-1136.06 -747.828 2371.68
-1151.96 -744.298 2360.49
-1168.93 -741.57 2351.84
-1216.13 -757.781 2403.25
-1233.16 -754.953 2394.28
-1252.69 -753.722 2390.37
-1268.47 -750.319 2379.58
-1296.89 -754.385 2392.48
-1325.44 -758.387 2405.17
-1339.51 -754.105 2391.59
-1382.41 -765.942 2429.13
0 0 0
0 0 0
0 0 0
0 0 0
0 0 0
0 0 0
1186 -856.833 2641.9
1124.47 -829.019 2556.14
1075.58 -809.554 2496.13
1069.28 -821.995 2534.48
1027.23 -806.898 2487.94
1014.18 -814.419 2511.13
970.821 -797.389 2458.62
949.95 -798.464 2461.93
932.01 -802.112 2473.18
907.892 -800.493 2468.19
871.528 -787.723 2428.81
855.958 -793.574 2446.85
834.494 -794.126 2448.55
805.729 -787.571 2428.35
789.577 -793.323 2446.08
781.665 -807.922 2491.09
735.926 -783.132 2414.66
719.312 -788.767 2432.03
696.836 -788.127 2430.06
671.284 -783.855 2416.89
651.61 -786.388 2424.7
629.604 -786.186 2424.07
603.625 -780.83 2407.56
585.509 -785.625 2422.34
556.295 -775.324 2390.58
536.125 -777.306 2396.69
516.216 -779.847 2404.53
495.753 -781.739 2410.36
470.743 -776.305 2393.61
448.454 -775.053 2389.75
426.874 -774.96 2389.46
409.412 -782.732 2413.42
386.669 -780.711 2407.19
365.295 -781.379 2409.25
342.246 -778.324 2399.83
318.586 -773.371 2384.56
296.235 -771.11 2377.59
275.518 -773.082 2383.67
254.876 -775.616 2391.48
232.507 -772.876 2383.04
211.953 -776.225 2393.36
189.464 -772.447 2381.71
167.306 -769.224 2371.77
145.9 -769.02 2371.15
125.445 -774.615 2388.4
103.968 -774.917 2389.33
81.944 -770.23 2374.88
60.6362 -771.343 2378.31
39.1383 -769.933 2373.96
17.9024 -776.487 2394.17
-3.63911 -770.644 2376.15
-25.1048 -772.457 2381.74
-46.5191 -771.745 2379.55
-67.916 -771.286 2378.13
-89.3165 -771.078 2377.49
-110.034 -766.191 2362.42
-132.054 -770.494 2375.69
-154.363 -775.045 2389.72
-175.095 -771.533 2378.89
-195.775 -768.584 2369.8
-217.059 -768.349 2369.08
-238.121 -767.445 2366.29
-260.879 -771.704 2379.42
-281.607 -769.768 2373.45
-303.654 -771.456 2378.66
-324.352 -769.721 2373.31
-346.715 -771.907 2380.05
-367.424 -770.371 2375.31
-388.177 -769.09 2371.36
-409.642 -769.28 2371.95
-429.895 -767.288 2365.81
-453.758 -771.624 2379.17
-475.208 -771.65 2379.25
-495.652 -770.11 2374.51
-518.006 -771.545 2378.93
-539.136 -771.112 2377.6
-558.455 -768.222 2368.68
-578.943 -767.094 2365.21
-600.74 -767.719 2367.13
-624.712 -770.985 2377.2
-649.563 -775.083 2389.84
-661.681 -764.213 2356.32
-689.67 -771.779 2379.65
-707.614 -767.986 2367.96
-728.128 -767.124 2365.3
-754.611 -772.42 2381.63
-768.881 -765.268 2359.58
-795.489 -770.449 2375.55
-817.022 -770.574 2375.94
-836.603 -768.897 2370.77
-858.002 -768.934 2370.88
-875.692 -765.725 2360.99
-892.831 -762.199 2350.11
-921.196 -768.197 2368.61
-939.533 -765.75 2361.06
-959.142 -764.426 2356.98
-990.037 -771.959 2380.21
-1003.25 -765.677 2360.84
-1031.37 -770.798 2376.63
-1054.63 -772.151 2380.8
-1073.94 -770.62 2376.08
-1092.73 -768.776 2370.39
-1105.25 -762.68 2351.6
-1130.7 -765.567 2360.5
-1164.65 -773.994 2386.48
-1174.55 -766.43 2363.16
-1198.37 -768.051 2368.16
-1235.41 -777.936 2398.64
-1248.73 -772.808 2382.82
-1264.93 -769.604 2372.95
-1293.76 -774.064 2386.7
-1307.87 -769.715 2373.29
-1331.61 -771.079 2377.49
-1389.15 -791.662 2440.96
0 0 0
0 0 0
0 0 0
0 0 0
0 0 0
0 0 0
0 0 0
1155.04 -875.208 2625.62
1138.21 -880.486 2641.46
1094.32 -864.61 2593.83
1041.99 -841.232 2523.69
1026.13 -846.905 2540.72
966.093 -815.548 2446.64
952.527 -822.869 2468.61
931.824 -824.229 2472.69
907.379 -822.264 2466.79
902.958 -838.801 2516.4
862.089 -821.46 2464.38
839.245 -820.832 2462.5
826.592 -830.407 2491.22
809.903 -836.35 2509.05
776.325 -824.692 2474.07
751.334 -821.737 2465.21
720.233 -811.715 2435.15
695.628 -808.616 2425.85
678.527 -814.32 2442.96
653.683 -810.803 2432.41
629.694 -808.14 2424.42
610.662 -811.875 2435.63
585.141 -806.941 2420.82
564.149 -808.11 2424.33
538.7 -802.735 2408.2
517.487 -803.483 2410.45
494.478 -801.387 2404.16
475.031 -805.136 2415.41
453.078 -804.795 2414.38
430.445 -803.15 2409.45
407.87 -801.444 2404.33
385.509 -799.991 2399.97
363.77 -799.731 2399.19
340.142 -795.027 2385.08
320.264 -799.039 2397.12
297.92 -797.038 2391.11
276.862 -798.433 2395.3
255.51 -799.144 2397.43
233.366 -797.281 2391.84
211.809 -797.248 2391.74
189.939 -795.896 2387.69
168.33 -795.431 2386.29
147.202 -797.434 2392.3
126.056 -800.012 2400.04
103.938 -796.216 2388.65
82.0853 -792.991 2378.97
60.7404 -794.132 2382.4
39.2059 -792.686 2378.06
17.7127 -789.601 2368.8
-3.62213 -788.355 2365.06
-25.1778 -796.222 2388.67
-46.3949 -791.066 2373.2
-68.2493 -796.602 2389.8
-89.3633 -792.912 2378.74
-110.932 -793.906 2381.72
-132.44 -794.209 2382.63
-152.913 -789.089 2367.27
-174.978 -792.435 2377.3
-195.725 -789.729 2369.19
-215.877 -785.395 2356.18
-238.917 -791.398 2374.2
-261.431 -794.82 2384.46
-283.437 -796.293 2388.88
-302.133 -788.916 2366.75
-326.715 -796.865 2390.6
-347.86 -795.969 2387.91
-367.19 -791.266 2373.8
-388.239 -790.58 2371.74
-410.193 -791.714 2375.14
-431.668 -791.855 2375.57
-455.611 -796.298 2388.89
-475.1 -792.905 2378.72
-492.047 -785.747 2357.24
-517.894 -792.804 2378.41
-541.756 -796.384 2389.15
-558.999 -790.332 2370.99
-582.226 -792.874 2378.62
-604.374 -793.817 2381.45
-621.932 -788.875 2366.63
-647.937 -794.62 2383.86
-669.299 -794.483 2383.45
-687.428 -790.638 2371.92
-715.684 -798.321 2394.96
-733.345 -794.082 2382.25
-750.749 -789.813 2369.44
-772.915 -790.651 2371.95
-799.01 -795.356 2386.07
-816.602 -791.571 2374.71
-836.817 -790.458 2371.37
-863.097 -794.986 2384.96
-875.603 -786.916 2360.75
-904.963 -794.015 2382.05
-920.762 -789.164 2367.49
-948.64 -794.65 2383.95
-973.48 -797.405 2392.21
-980.777 -785.981 2357.94
-1005.06 -788.365 2365.1
-1034.73 -794.787 2384.36
-1058.05 -796.172 2388.52
-1077.83 -794.891 2384.67
-1095.09 -791.838 2375.51
-1119.89 -794.251 2382.75
-1137.3 -791.426 2374.28
-1156.2 -789.728 2369.18
-1184.78 -794.58 2383.74
-1209.62 -796.796 2390.39
-1234.5 -798.959 2396.88
-1253.62 -797.388 2392.17
-1270.36 -794.38 2383.14
-1305.21 -802.605 2407.81
-1327.83 -803.169 2409.51
-1355.12 -806.487 2419.46
-1364.42 -799.171 2397.51
0 0 0
0 0 0
0 0 0
0 0 0
0 0 0
0 0 0
0 0 0
0 0 0
0 0 0
1078.77 -875.36 2556.97
1070.82 -887.868 2593.51
1030.11 -873.17 2550.58
990.728 -858.947 2509.03
953.32 -845.813 2470.66
933.263 -847.812 2476.5
902.871 -840.291 2454.54
883.39 -842.803 2461.87
864.055 -845.585 2470
851.595 -855.422 2498.73
811.361 -837.136 2445.32
812.556 -861.767 2517.27
0 0 0
751.105 -843.688 2464.46
726.495 -840.902 2456.32
700.145 -835.863 2441.6
682.387 -841.086 2456.86
660.139 -840.942 2456.44
634.279 -836.025 2442.07
614.855 -839.543 2452.35
593.21 -840.178 2454.21
559.026 -822.415 2402.32
543.712 -832.101 2430.61
502.994 -802.088 2342.94
495.279 -824.38 2408.06
476.522 -829.493 2422.99
456.599 -832.97 2433.15
429.137 -822.349 2402.13
409.004 -825.393 2411.02
385.383 -821.343 2399.19
364.643 -823.318 2404.95
345.248 -828.77 2420.88
320.909 -822.288 2401.95
297.938 -818.628 2391.26
277.203 -821.021 2398.25
253.516 -814.337 2378.72
233.838 -820.484 2396.68
211.987 -819.482 2393.75
189.349 -814.866 2380.27
169.205 -821.174 2398.69
147.906 -822.903 2403.74
124.919 -814.223 2378.39
103.902 -817.45 2387.81
82.4815 -818.354 2390.46
60.84 -816.933 2386.3
39.3641 -817.395 2387.65
17.7493 -812.616 2373.69
-3.66296 -818.789 2391.73
-25.159 -817.13 2386.88
-46.7862 -819.298 2393.21
-67.9283 -814.282 2378.56
-89.9013 -819.244 2393.06
-111.07 -816.378 2384.68
-131.817 -811.838 2371.42
-153.839 -815.326 2381.61
-174.989 -813.904 2377.46
-196.363 -813.717 2376.91
-219.87 -821.539 2399.76
-241.209 -820.586 2396.97
-260.829 -814.42 2378.96
-282.562 -815.289 2381.5
-303.479 -813.847 2377.29
-325.197 -814.6 2379.49
-347.475 -816.577 2385.26
-368.381 -815.288 2381.5
-391.796 -819.386 2393.47
-409.265 -811.271 2369.76
-434.929 -819.401 2393.51
-454.408 -815.659 2382.58
-477.748 -818.873 2391.97
-495.987 -813.444 2376.11
-518.556 -815.273 2381.46
-537.407 -811.341 2369.97
-561.683 -815.589 2382.38
-582.524 -814.719 2379.84
-606.084 -817.578 2388.19
-620.093 -807.8 2359.63
-646.528 -814.321 2378.68
-668.364 -814.816 2380.12
-692.824 -818.381 2390.53
-707.619 -810.658 2367.98
-732.899 -815.048 2380.8
-755.187 -815.954 2383.45
-777.471 -816.807 2385.94
-795.821 -813.592 2376.54
-811.494 -807.88 2359.86
-840.463 -815.359 2381.71
-865.525 -818.769 2391.67
-882.417 -814.473 2379.12
-908.189 -818.382 2390.54
-924.766 -814.017 2377.79
-948.135 -815.692 2382.68
-969.731 -815.802 2383
-989.812 -814.66 2379.67
-1005.31 -809.875 2365.69
-1031.17 -813.464 2376.17
-1057.53 -817.287 2387.34
-1076.13 -815.087 2380.91
-1096.18 -814.047 2377.87
-1116.53 -813.267 2375.6
-1133.49 -810.092 2366.32
-1160.73 -814.247 2378.46
-1189.37 -819.215 2392.97
-1221.62 -826.448 2414.1
-1232.65 -819.326 2393.3
-1249.1 -815.986 2383.54
-1295.07 -831.717 2429.49
-1289.16 -814.159 2378.2
-1315.74 -817.364 2387.56
-1360.66 -831.671 2429.36
-1379.55 -829.871 2424.1
0 0 0
0 0 0
0 0 0
0 0 0
0 0 0
0 0 0
0 0 0
0 0 0
0 0 0
0 0 0
1055.52 -898.219 2556.47
1046.12 -910.077 2590.22
998.08 -888.093 2527.65
982.447 -894.594 2546.15
927.271 -864.536 2460.6
906.528 -865.898 2464.48
885.352 -866.902 2467.34
871.287 -875.102 2490.67
858.629 -885.184 2519.37
836.489 -885.774 2521.05
787.761 -857.457 2440.45
0 0 0
747.515 -861.752 2452.68
722.737 -858.566 2443.61
705.118 -863.952 2458.94
666.667 -843.334 2400.26
657.183 -859.207 2445.43
632.374 -855.449 2434.74
606.788 -850.331 2420.17
586.748 -852.895 2427.47
557.755 -842.138 2396.86
532.557 -836.477 2380.74
513.361 -840.162 2391.23
494.521 -844.78 2404.37
465.935 -832.408 2369.16
450.136 -842.79 2398.71
427.642 -841.051 2393.76
403.152 -834.994 2376.52
381.787 -835.091 2376.8
360.533 -835.459 2377.84
340.57 -839.054 2388.08
316.277 -831.747 2367.28
297.703 -839.509 2389.37
276.44 -840.308 2391.64
255.218 -841.378 2394.69
231.909 -835.129 2376.91
212.483 -843.015 2399.35
190.771 -842.588 2398.14
168.138 -837.47 2383.57
