# .PCD v0.7 - Point Cloud Data file format
VERSION 0.7
FIELDS x y z
SIZE 4 4 4
TYPE F F F
COUNT 1 1 1
WIDTH 1965
HEIGHT 1
VIEWPOINT 0 0 0 1 0 0 0
POINTS 1965
DATA ascii
874.726 -527.075 2437.72
848.619 -524.513 2425.87
830.237 -526.716 2436.06
803.001 -523.27 2420.12
782.595 -524.205 2424.45
761.189 -524.506 2425.84
739.142 -524.369 2425.21
716.502 -523.791 2422.53
688.464 -519.106 2400.86
668.08 -520.075 2405.35
647.322 -520.809 2408.74
626.711 -521.716 2412.93
601.703 -518.896 2399.89
579.866 -518.702 2399
561.554 -521.769 2413.18
538.047 -520.062 2405.29
514.23 -517.898 2395.28
492.324 -517.555 2393.69
470.035 -516.758 2390.01
449.942 -518.416 2397.67
427.964 -517.959 2395.56
407.465 -519.339 2401.94
383.414 -516.093 2386.93
362.386 -516.771 2390.06
342.105 -518.668 2398.84
319.185 -516.55 2389.04
298.35 -517.744 2394.57
276.274 -516.802 2390.21
255.396 -518.132 2396.36
233.061 -516.479 2388.71
211.364 -516.047 2386.72
190.309 -517.261 2392.33
167.971 -514.852 2381.19
146.781 -515.777 2385.47
125.147 -515.185 2382.73
103.554 -514.553 2379.81
82.209 -515.148 2382.56
60.8848 -516.337 2388.06
39.2973 -515.374 2383.6
17.8398 -515.85 2385.8
-3.6465 -514.806 2380.98
-25.0955 -514.779 2380.85
-46.5577 -514.924 2381.52
-67.8593 -513.761 2376.15
-89.1672 -513.193 2373.52
-110.829 -514.485 2379.49
-132.37 -514.893 2381.38
-153.367 -513.362 2374.3
-174.869 -513.69 2375.82
-197.268 -516.296 2387.87
-218.261 -515.07 2382.2
-239.624 -514.858 2381.22
-260.629 -513.977 2377.14
-282.923 -515.578 2384.55
-302.726 -512.733 2371.39
-325.184 -514.464 2379.39
-347.335 -515.524 2384.3
-367.75 -514.037 2377.42
-389.754 -514.81 2381
-409.46 -512.627 2370.9
-432.805 -514.989 2381.83
-453.559 -514.191 2378.13
-475.556 -514.81 2381
-497.366 -515.183 2382.72
-521.875 -518.205 2396.7
-539.663 -514.577 2379.92
-561.164 -514.633 2380.18
-581.7 -513.831 2376.47
-605.5 -515.868 2385.89
-631.408 -519.499 2402.68
-649.852 -516.952 2390.9
-678.904 -522.736 2417.66
-702.088 -523.783 2422.5
-713.249 -516.068 2386.81
-731.262 -513.617 2375.48
-757.323 -516.797 2390.18
-782.967 -519.525 2402.8
-797.568 -514.975 2381.76
-825.475 -519.031 2400.52
-840.263 -514.841 2381.14
-867.693 -518.412 2397.66
-894.65 -521.535 2412.1
-901.243 -512.92 2372.26
-932.025 -518.152 2396.45
-948.631 -515.444 2383.93
-973.116 -517.042 2391.32
-1001.42 -520.558 2407.58
-1016.12 -516.998 2391.11
-1032.45 -514.403 2379.11
-1063.64 -519.165 2401.14
-1082.58 -517.876 2395.18
-1091.09 -511.75 2366.85
-1124.18 -517.16 2391.87
-1151.63 -519.827 2404.2
-1173.18 -519.778 2403.98
-1189.86 -517.613 2393.96
-1224.95 -523.391 2420.69
-1249.58 -524.574 2426.15
-1265.56 -522.148 2414.93
-1266.06 -513.529 2375.07
-1320.72 -526.797 2436.44
-1317.38 -516.872 2390.53
-1353.19 -522.382 2416.02
-1398.52 -531.336 2457.43
0 0 0
1263.28 -575.998 2557.43
1213.27 -563.471 2501.81
1189.28 -562.786 2498.77
1169.84 -564.267 2505.35
1135.15 -558.305 2478.88
1099.99 -551.872 2450.31
1082.17 -554.049 2459.98
1049.41 -548.512 2435.39
1024.59 -546.973 2428.56
1001.68 -546.413 2426.07
985.725 -549.702 2440.68
961.574 -548.468 2435.2
937.454 -547.194 2429.54
915.439 -547.118 2429.21
891.687 -545.975 2424.13
870.276 -546.244 2425.32
842.011 -542.114 2406.99
827.874 -547.102 2429.13
805.32 -546.646 2427.11
779.444 -543.849 2414.69
758.115 -544.154 2416.04
732.441 -541.266 2403.22
713.309 -543.184 2411.74
692.912 -544.229 2416.38
666.901 -540.789 2401.1
643.639 -539.422 2395.04
624.613 -541.635 2404.86
602.291 -541.044 2402.24
579.055 -539.559 2395.64
561.87 -543.816 2414.54
536.435 -540.108 2398.08
512.887 -538.068 2389.02
490.837 -537.492 2386.46
470.683 -539.032 2393.3
450.918 -541.188 2402.87
426.318 -537.466 2386.35
405.081 -537.813 2387.89
383.789 -538.122 2389.26
361.128 -536.436 2381.77
341.469 -539.275 2394.38
318.461 -536.852 2383.62
297.552 -537.874 2388.16
276.542 -538.857 2392.53
254.09 -536.961 2384.11
232.908 -537.645 2387.14
211.828 -538.727 2391.95
189.022 -535.17 2376.16
167.997 -536.389 2381.57
146.804 -537.35 2385.83
125.218 -536.954 2384.07
104.079 -538.711 2391.88
82.1208 -536.036 2380
60.869 -537.712 2387.44
39.5927 -540.884 2401.52
17.8206 -536.765 2383.24
-3.665 -538.976 2393.05
-25.1096 -536.531 2382.2
-46.4504 -535.144 2376.04
-68.26 -538.328 2390.18
-89.5479 -536.858 2383.65
-111.164 -537.543 2386.69
-132.229 -535.772 2378.83
-153.392 -534.839 2374.69
-174.969 -535.401 2377.18
-196.656 -536.139 2380.46
-217.317 -534.21 2371.89
-239.369 -535.742 2378.69
-260.567 -535.264 2376.57
-282.395 -536.057 2380.09
-304.262 -536.807 2383.42
-326.693 -538.387 2390.44
-347.675 -537.53 2386.63
-368.114 -535.984 2379.77
-388.404 -534.402 2372.75
-410.534 -535.386 2377.11
-433.058 -536.76 2383.21
-452.546 -534.419 2372.82
-475.835 -536.576 2382.4
-498.257 -537.61 2386.99
-517.605 -535.38 2377.09
-538.688 -535.05 2375.62
-562.845 -537.681 2387.31
-584.373 -537.701 2387.39
-606.102 -537.897 2388.26
-628.547 -538.693 2391.8
-649.727 -538.388 2390.44
-668.989 -536.565 2382.35
-691.334 -537.251 2385.39
-711.444 -536.211 2380.77
-733.155 -536.403 2381.63
-753.651 -535.72 2378.6
-776.167 -536.472 2381.93
-797.755 -536.559 2382.32
-816.118 -534.529 2373.31
-833.958 -532.268 2363.27
-857.909 -533.924 2370.62
-883.625 -536.571 2382.37
-894.182 -530.106 2353.67
-923.032 -534.533 2373.33
-948.155 -536.651 2382.73
-971.155 -537.5 2386.5
-996.411 -539.534 2395.53
-1016.77 -538.887 2392.66
-1031.18 -535.178 2376.19
-1053.61 -535.698 2378.5
-1073.6 -534.98 2375.31
-1099.63 -537.243 2385.36
-1126.17 -539.663 2396.1
-1132.49 -532.483 2364.23
-1164.06 -537.227 2385.29
-1207.67 -547.25 2429.79
-1219.55 -542.793 2410
-1230.63 -538.144 2389.36
-1262.29 -542.5 2408.7
-1252.64 -529.255 2349.89
-1271.55 -528.317 2345.73
-1343.38 -549.035 2437.72
0 0 0
0 0 0
0 0 0
1276 -605.071 2583.19
1256.58 -606.929 2591.12
1202.49 -591.801 2526.54
1166.69 -585.26 2498.61
1157.31 -591.976 2527.28
1114.2 -581.359 2481.96
1083.52 -576.932 2463.05
1054.24 -573.075 2446.59
1037.31 -575.912 2458.7
1005.21 -570.271 2434.62
983.683 -570.505 2435.62
956.699 -567.515 2422.85
937.247 -568.957 2429.01
912.821 -567.376 2422.26
889.798 -566.611 2418.99
868.753 -567.1 2421.08
845.688 -566.26 2417.5
827.355 -568.629 2427.61
805.117 -568.369 2426.5
782.249 -567.638 2423.38
759.383 -566.866 2420.08
737.946 -567.148 2421.28
710.909 -563.01 2403.62
691.919 -565.186 2412.91
669.596 -564.693 2410.81
649.291 -565.925 2416.07
624.686 -563.366 2405.14
603.309 -563.637 2406.3
580.726 -562.761 2402.56
558.611 -562.288 2400.54
534.791 -559.99 2390.73
514.172 -560.994 2395.01
492.856 -561.29 2396.28
472.801 -563.116 2404.07
450.96 -562.888 2403.1
427.048 -559.922 2390.44
405.936 -560.507 2392.93
385.525 -562.179 2400.07
363.063 -560.882 2394.53
341.911 -561.573 2397.48
319.781 -560.641 2393.5
299.264 -562.608 2401.9
275.67 -558.645 2384.98
254.835 -560.076 2391.09
232.36 -557.835 2381.53
210.899 -557.821 2381.47
190.12 -559.811 2389.96
168.423 -559.257 2387.6
146.876 -559.116 2387
125.636 -560.299 2392.05
104.087 -560.3 2392.05
82.5305 -560.259 2391.87
60.9729 -560.174 2391.51
39.4187 -560.047 2390.97
17.8439 -558.964 2386.34
-3.65332 -558.75 2385.43
-25.1219 -558.265 2383.36
-46.4163 -556.141 2374.29
-68.3206 -560.358 2392.3
-89.6282 -558.833 2385.79
-111.263 -559.544 2388.82
-131.808 -555.429 2371.25
-154.096 -558.787 2385.59
-175.771 -559.368 2388.07
-197.314 -559.452 2388.43
-218.048 -557.449 2379.88
-240.464 -559.719 2389.57
-260.485 -556.501 2375.83
-281.962 -556.645 2376.45
-304.661 -559.01 2386.54
-324.348 -555.903 2373.28
-347.146 -558.181 2383
-367.258 -556.128 2374.24
-389.706 -557.642 2380.7
-412.237 -559.111 2386.98
-433.801 -559.189 2387.3
-456.434 -560.57 2393.2
-475.889 -558.102 2382.67
-496.322 -556.943 2377.72
-518.914 -558.202 2383.1
-540.913 -558.75 2385.43
-562.242 -558.59 2384.75
-583.287 -558.17 2382.96
-604.74 -558.156 2382.9
-627.885 -559.65 2389.28
-650.837 -560.88 2394.53
-669.612 -558.547 2384.57
-688.447 -556.407 2375.43
-711.274 -557.525 2380.2
-732.696 -557.509 2380.14
-759.669 -561.598 2397.59
-775.689 -557.587 2380.47
-798.199 -558.332 2383.65
-817.535 -556.874 2377.43
-836.392 -555.175 2370.17
-864.054 -559.258 2387.6
-888.204 -560.925 2394.72
-902.351 -556.347 2375.17
-931.009 -560.719 2393.84
-949.427 -558.866 2385.93
-972.085 -559.535 2388.78
-990.226 -557.632 2380.66
-1012.01 -557.816 2381.45
-1040.75 -561.75 2398.24
-1053.85 -557.251 2379.03
-1078.28 -558.804 2385.66
-1097.42 -557.612 2380.57
-1121.43 -558.887 2386.02
-1145.03 -559.917 2390.41
-1163.49 -558.439 2384.11
-1186.58 -559.202 2387.36
-1208.34 -559.317 2387.85
-1234.52 -561.442 2396.92
-1255.32 -561.087 2395.41
-1274.66 -560.1 2391.2
-1298.54 -561.111 2395.51
-1335.18 -567.514 2422.85
-1360.18 -568.838 2428.5
-1388.1 -571.324 2439.11
0 0 0
0 0 0
1233.17 -618.534 2542.86
1197.96 -612.247 2517.01
1156.46 -602.441 2476.7
1163.07 -617.804 2539.86
1121.89 -607.888 2499.09
1076.55 -595.266 2447.21
1051.64 -593.651 2440.56
1030.95 -594.398 2443.64
1006.43 -592.922 2437.57
983.777 -592.504 2435.85
956.079 -588.96 2421.28
934.524 -589.123 2421.95
912.904 -589.252 2422.48
886.848 -586.453 2410.97
872.117 -591.191 2430.45
847.687 -589.43 2423.21
820.495 -585.603 2407.48
809.158 -593.192 2438.68
780.502 -588.154 2417.97
755.929 -585.992 2409.08
735.148 -586.727 2412.1
713.441 -586.747 2412.18
689.003 -584.451 2402.74
666.764 -583.932 2400.61
647.297 -585.887 2408.65
622.758 -583.228 2397.72
602.861 -584.881 2404.51
577.55 -581.209 2389.42
557.31 -582.554 2394.95
535.027 -581.785 2391.78
512.967 -581.204 2389.4
493.069 -583.13 2397.31
469.996 -581.306 2389.81
448.637 -581.527 2390.72
426.034 -580.077 2384.76
406.434 -582.779 2395.87
383.989 -581.475 2390.51
361.758 -580.36 2385.92
341.504 -582.477 2394.63
318.498 -579.868 2383.9
297.703 -581.199 2389.37
275.898 -580.611 2386.96
254.219 -580.213 2385.32
232.836 -580.477 2386.4
210.817 -579.049 2380.53
188.811 -577.339 2373.51
168.492 -581.007 2388.58
146.16 -577.793 2375.37
124.719 -577.601 2374.58
103.706 -579.725 2383.31
81.8268 -576.846 2371.48
60.8738 -580.774 2387.63
39.2425 -578.987 2380.28
17.8076 -579.282 2381.49
-3.6459 -579.061 2380.58
-25.0196 -577.377 2373.66
-46.493 -578.484 2378.21
-68.2928 -581.674 2391.33
-89.5192 -579.621 2382.89
-110.54 -577.289 2373.3
-132.619 -580.343 2385.85
-153.534 -578.16 2376.88
-175.13 -578.765 2379.37
-197.076 -580.267 2385.54
-218.141 -579.134 2380.89
-240.174 -580.547 2386.69
-261.233 -579.563 2382.65
-282.084 -578.303 2377.47
-303.435 -578.176 2376.94
-324.227 -577.068 2372.39
-347.715 -580.601 2386.91
-366.528 -576.369 2369.52
-389.09 -578.175 2376.94
-410.429 -578.069 2376.51
-432.598 -579.086 2380.69
-453.897 -578.895 2379.9
-475.529 -579.128 2380.86
-497.539 -579.783 2383.55
-517.697 -578.313 2377.51
-540.295 -579.577 2382.71
-560.263 -578.032 2376.36
-581.471 -577.833 2375.54
-604.3 -579.201 2381.16
-625.697 -579.15 2380.95
-647.302 -579.289 2381.52
-665.187 -576.197 2368.81
-686.337 -576.037 2368.15
-709.104 -577.202 2372.94
-729.036 -576.06 2368.25
-753.256 -578.275 2377.35
-776.369 -579.54 2382.55
-796.732 -578.74 2379.27
-817.624 -578.356 2377.69
-842.007 -580.398 2386.08
-858.51 -577.042 2372.28
-881.859 -578.339 2377.61
-902.815 -578.041 2376.39
-926.171 -579.259 2381.4
-944.863 -577.571 2374.46
-965.964 -577.397 2373.74
-988.871 -578.287 2377.4
-1014.45 -580.668 2387.19
-1029.24 -576.904 2371.72
-1048.09 -575.52 2366.03
-1082.07 -582.337 2394.05
-1097.61 -579.157 2380.98
-1112.06 -575.536 2366.09
-1131.3 -574.481 2361.76
-1161.13 -578.742 2379.27
-1179.84 -577.411 2373.8
-1206.36 -579.878 2383.94
-1236.1 -583.779 2399.98
-1247.4 -578.989 2380.29
-1278.6 -583.439 2398.58
-1285.29 -576.746 2371.07
-1318.91 -582.159 2393.32
-1324.59 -575.258 2364.95
-1391.26 -594.65 2444.67
0 0 0
0 0 0
1314.88 -683.944 2711.35
1241.14 -657.808 2607.74
1219.2 -658.647 2611.07
1169.15 -644.033 2553.13
1143.06 -642.296 2546.25
1102.1 -631.965 2505.29
1071.74 -627.401 2487.2
1043.48 -623.906 2473.34
1004.61 -613.77 2433.16
987.455 -616.746 2444.96
964.339 -616.05 2442.2
940.511 -614.857 2437.47
921.166 -616.606 2444.4
898.297 -616.025 2442.1
874.426 -614.711 2436.89
855.085 -616.595 2444.36
827.099 -612.18 2426.86
814.356 -619.114 2454.34
784.983 -613.439 2431.85
767.283 -616.823 2445.26
740.529 -612.912 2429.76
716.191 -610.824 2421.48
693.285 -609.865 2417.68
674.82 -612.876 2429.61
649.554 -609.705 2417.05
625.191 -607.192 2407.08
604.5 -608.193 2411.05
583.017 -608.441 2412.04
561.479 -608.649 2412.86
538.405 -607.142 2406.89
516.214 -606.546 2404.52
495.984 -608.303 2411.49
471.854 -605.218 2399.26
450.589 -605.689 2401.12
429.262 -606.119 2402.83
408.687 -607.713 2409.15
384.587 -603.95 2394.23
363.341 -604.489 2396.37
340.937 -603.047 2390.65
320.281 -604.711 2397.25
299.366 -606.091 2402.72
276.55 -603.539 2392.6
255.13 -603.858 2393.86
233.952 -604.862 2397.85
212.003 -603.873 2393.92
190.109 -602.837 2389.82
168.072 -601.022 2382.62
147.165 -603.31 2391.69
126.34 -606.776 2405.43
104.206 -604.09 2394.79
82.7251 -604.778 2397.51
61.0425 -603.954 2394.25
39.224 -600.148 2379.16
17.8282 -601.432 2384.25
-3.662 -603.159 2391.1
-25.1101 -600.927 2382.25
-46.6228 -601.584 2384.85
-68.3432 -603.662 2393.09
-89.8046 -603.005 2390.48
-111.436 -603.523 2392.54
-133.202 -604.484 2396.35
-154.337 -602.713 2389.33
-175.476 -601.386 2384.07
-197.303 -602.453 2388.3
-217.951 -600.063 2378.82
-239.966 -601.526 2384.62
-261.853 -602.456 2388.31
-283.213 -602.124 2386.99
-304.896 -602.476 2388.39
-325.922 -601.57 2384.8
-346.999 -600.864 2382
-369.78 -603.019 2390.54
-390.331 -601.501 2384.52
-412.728 -602.838 2389.82
-435.708 -604.85 2397.8
-456.248 -603.446 2392.23
-474.946 -599.842 2377.94
-496.932 -600.522 2380.64
-517.895 -599.962 2378.42
-539.427 -600.078 2378.88
-562.042 -601.344 2383.9
-583.317 -601.136 2383.08
-606.448 -602.788 2389.63
-624.216 -599.179 2375.32
-647.56 -600.984 2382.47
-670.191 -602.033 2386.63
-691.765 -602.096 2386.88
-712.461 -601.414 2384.18
-731.348 -599.29 2375.76
-753.866 -600.178 2379.28
-775.791 -600.557 2380.78
-796.145 -599.732 2377.51
-820.507 -601.892 2386.07
-842.042 -601.919 2386.18
-860.547 -599.833 2377.91
-882.588 -600.254 2379.58
-905.639 -601.325 2383.83
-927.997 -601.897 2386.09
-945.295 -599.236 2375.54
-968.246 -600.197 2379.35
-994.939 -603.385 2391.99
-1016.44 -603.355 2391.87
-1041.37 -605.32 2399.66
-1052.15 -599.149 2375.2
-1081.77 -603.737 2393.39
-1096.1 -599.779 2377.7
-1125.06 -603.827 2393.74
-1146.2 -603.602 2392.85
-1162.56 -600.916 2382.2
-1185.21 -601.522 2384.61
-1212.69 -604.509 2396.45
-1224.19 -599.569 2376.86
-1254.38 -603.792 2393.6
-1275.56 -603.61 2392.88
-1308.3 -608.814 2413.51
-1323.83 -605.97 2402.24
-1347.73 -606.988 2406.28
-1382.74 -612.897 2429.7
0 0 0
0 0 0
1286.21 -692.924 2652.23
1225.12 -672.506 2574.07
1201.78 -672.419 2573.74
1165.01 -664.67 2544.08
1121.05 -652.43 2497.23
1091.86 -648.45 2482
1060.91 -643.242 2462.07
1031.34 -638.669 2444.56
1007.93 -637.788 2441.19
987.782 -638.984 2445.77
956.805 -633.067 2423.12
939.771 -636.315 2435.55
917.348 -635.981 2434.27
898.916 -638.466 2443.78
870.111 -633.523 2424.86
848.934 -634.022 2426.77
827.988 -634.725 2429.46
812.144 -639.484 2447.68
782.24 -633.128 2423.35
753.56 -627.425 2401.52
738.204 -632.808 2422.13
712.83 -629.67 2410.12
691.355 -629.887 2410.95
666.449 -626.89 2399.47
643.957 -626.04 2396.22
625.135 -628.821 2406.87
602.791 -628.133 2404.23
578.176 -624.938 2392
557.245 -625.634 2394.67
536.021 -626.042 2396.23
512.09 -623.19 2385.31
493.389 -626.731 2398.87
472.549 -627.756 2402.79
446.786 -622.025 2380.85
428.018 -625.946 2395.86
407.338 -627.34 2401.2
384.848 -625.944 2395.86
362.135 -623.999 2388.41
341.032 -624.759 2391.32
318.188 -622.215 2381.58
295.375 -619.369 2370.69
274.625 -620.742 2375.94
253.249 -620.814 2376.22
233.261 -624.615 2390.77
211.717 -624.598 2390.7
190.16 -624.534 2390.46
168.866 -625.431 2393.89
146.015 -619.975 2373.01
125.711 -625.321 2393.47
103.812 -623.301 2385.74
82.4125 -624.011 2388.46
60.5404 -620.378 2374.55
39.2985 -622.763 2383.68
17.7968 -621.814 2380.05
-3.6511 -622.841 2383.98
-25.1373 -623.062 2384.82
-46.6541 -623.489 2386.46
-67.9466 -621.593 2379.2
-89.3922 -621.673 2379.51
-111.195 -623.725 2387.36
-132.109 -620.933 2376.68
-153.879 -622.386 2382.24
-175.524 -623.033 2384.71
-196.321 -620.862 2376.4
-217.836 -621.164 2377.56
-240.904 -625.445 2393.95
-259.92 -619.367 2370.68
-283.291 -623.801 2387.65
-304.98 -624.166 2389.05
-324.965 -621.226 2377.8
-347.239 -622.753 2383.64
-368.996 -623.231 2385.47
-389.506 -621.666 2379.48
-411.693 -622.802 2383.83
-432.368 -621.649 2379.42
-454.021 -621.947 2380.56
-475.851 -622.448 2382.48
-497.085 -622.161 2381.37
-517.851 -621.336 2378.22
-539.383 -621.458 2378.69
-562.218 -623.016 2384.65
-583.042 -622.312 2381.95
-601.87 -619.604 2371.59
-622.945 -619.314 2370.48
-647.519 -622.408 2382.32
-667.528 -621.056 2377.14
-687.675 -619.912 2372.77
-709.925 -620.676 2375.69
-729.036 -618.731 2368.25
-752.666 -620.623 2375.49
-774.862 -621.261 2377.93
-796.741 -621.616 2379.29
-816.38 -620.252 2374.07
-841.7 -623.163 2385.21
-857.894 -619.341 2370.58
-880.893 -620.498 2375.01
-900.805 -619.477 2371.1
-926.939 -622.683 2383.37
-947.463 -622.061 2380.99
-972.29 -624.229 2389.29
-990.843 -622.362 2382.14
-1007.33 -619.303 2370.43
-1031.32 -620.889 2376.51
-1055.34 -622.431 2382.41
-1074.99 -621.383 2378.4
-1096.15 -621.231 2377.82
-1114.76 -619.667 2371.83
-1144.15 -624.044 2388.58
-1155.8 -618.76 2368.36
-1182.69 -621.681 2379.54
-1205.29 -622.28 2381.83
-1232.32 -625.107 2392.65
-1258.09 -627.208 2400.69
-1270.17 -622.525 2382.77
-1286.1 -619.86 2372.57
-1313.13 -622.538 2382.82
-1341.19 -625.613 2394.59
-1367.9 -627.973 2403.62
0 0 0
0 0 0
1263.5 -704.163 2605.4
1244.15 -706.504 2614.06
1187.22 -687.179 2542.56
1136.95 -671.033 2482.82
1114.97 -671.265 2483.68
1089.79 -669.541 2477.3
1051.97 -659.82 2441.33
1027.86 -658.46 2436.3
1008.94 -660.448 2443.66
985.14 -659.251 2439.23
961.707 -658.252 2435.53
938.975 -657.699 2433.49
916.906 -657.595 2433.1
894.79 -657.451 2432.57
875.25 -659.239 2439.18
847.552 -654.817 2422.82
825.381 -654.545 2421.82
804.398 -655.225 2424.33
784.217 -656.615 2429.48
760.715 -655.224 2424.33
735.557 -652.283 2413.45
713.555 -652.045 2412.57
690.455 -650.758 2407.81
670.24 -652.195 2413.12
646.628 -650.313 2406.16
625.281 -650.656 2407.43
601.755 -648.675 2400.1
578.087 -646.389 2391.64
558.91 -649.14 2401.82
537.41 -649.307 2402.44
516.879 -650.708 2407.62
491.354 -645.669 2388.98
471.903 -648.515 2399.51
449.206 -646.96 2393.75
428.279 -647.926 2397.33
404.998 -645.243 2387.4
385.081 -647.921 2397.31
363.081 -647.203 2394.65
340.148 -644.627 2385.12
320.303 -647.949 2397.41
298.665 -647.864 2397.1
276.015 -645.397 2387.97
254.122 -644.435 2384.41
233.026 -645.502 2388.36
211.248 -644.703 2385.4
190.197 -646.195 2390.92
169.238 -648.423 2399.16
146.461 -643.311 2380.25
125.684 -646.745 2392.96
103.664 -643.877 2382.35
82.6947 -647.739 2396.63
61.045 -647.119 2394.34
39.3699 -645.407 2388.01
17.8148 -643.907 2382.45
-3.65477 -644.966 2386.38
-25.1626 -645.195 2387.22
-46.5688 -643.809 2382.09
-68.1532 -644.983 2386.44
-89.664 -645.065 2386.74
-110.857 -643.274 2380.11
-132.726 -645.343 2387.77
-153.475 -642.154 2375.97
-175.063 -642.825 2378.45
-196.998 -644.486 2384.6
-218.058 -643.239 2379.98
-238.921 -641.685 2374.24
-261.872 -645.536 2388.48
-282.439 -643.37 2380.47
-303.208 -641.937 2375.17
-326.083 -644.858 2385.98
-348.01 -645.658 2388.94
-367.008 -641.249 2372.62
-389.905 -643.762 2381.92
-411.127 -643.392 2380.55
-431.776 -642.206 2376.16
-453.222 -642.26 2376.36
-476.909 -645.344 2387.77
-497.203 -643.768 2381.94
-519.829 -645.216 2387.3
-540.372 -644.066 2383.05
-563.022 -645.42 2388.06
-581.348 -641.901 2375.03
-602.981 -642.153 2375.96
-624.834 -642.613 2377.67
-646.419 -642.777 2378.27
-667.97 -642.897 2378.72
-688.945 -642.472 2377.15
-710.955 -643.011 2379.14
-728.679 -639.754 2367.09
-749.666 -639.465 2366.02
-774.788 -642.622 2377.7
-794.514 -641.255 2372.64
-824.505 -648.026 2397.7
-837.436 -641.386 2373.13
-862.123 -643.856 2382.27
-878.475 -640.133 2368.49
-900.753 -640.801 2370.96
-925.476 -643.139 2379.61
-945.619 -642.259 2376.36
-966.753 -642.076 2375.68
-987.82 -641.858 2374.88
-1007.68 -640.881 2371.26
-1032.45 -643.004 2379.11
-1054.92 -643.638 2381.46
-1069.78 -639.69 2366.85
-1097.77 -643.6 2381.32
-1117.65 -642.699 2377.99
-1142.47 -644.612 2385.06
-1156.67 -640.579 2370.14
-1180.98 -642.185 2376.09
-1202.68 -642.343 2376.67
-1226.11 -643.402 2380.59
-1248.63 -643.958 2382.64
-1269.75 -643.782 2381.99
-1285.7 -641.035 2371.83
-1315.07 -644.957 2386.34
-1337.92 -645.609 2388.75
-1361.7 -646.684 2392.73
0 0 0
0 0 0
0 0 0
1240.12 -727.689 2605.6
1186.59 -709.709 2541.21
1170.68 -713.97 2556.47
1125.51 -700.197 2507.16
1096.64 -696.207 2492.87
1062.56 -688.676 2465.9
1043.52 -690.779 2473.43
1014.33 -686.107 2456.71
986.436 -682.122 2442.44
961.908 -680.337 2436.04
941.956 -681.78 2441.21
918.797 -680.916 2438.12
896.97 -681.021 2438.49
875.412 -681.34 2439.64
853.465 -681.365 2439.73
827.411 -678.027 2427.77
813.375 -684.622 2451.39
781.386 -676.053 2420.7
756.509 -673.321 2410.92
734.564 -673.115 2410.19
716.969 -677.004 2424.11
692.441 -674.385 2414.73
672.678 -676.387 2421.9
646.989 -672.365 2407.5
626.112 -673.239 2410.63
602.325 -670.934 2402.38
578.187 -668.05 2392.05
557.03 -668.523 2393.74
536.23 -669.477 2397.16
514.727 -669.598 2397.59
493.571 -670.201 2399.75
471.6 -669.703 2397.97
449.273 -668.626 2394.11
427.323 -668.028 2391.97
405.703 -667.913 2391.56
384.675 -668.812 2394.78
360.674 -664.343 2378.78
340.605 -667.01 2388.32
320.217 -669.367 2396.77
298.703 -669.545 2397.4
275.941 -666.733 2387.33
254.667 -667.345 2389.53
233.712 -668.98 2395.38
211.955 -668.424 2393.39
191.366 -671.841 2405.63
168.919 -668.772 2394.63
146.48 -664.843 2380.57
125.598 -667.846 2391.32
103.887 -666.769 2387.46
82.1726 -665.105 2381.5
60.6347 -664.196 2378.25
39.3747 -667.002 2388.3
17.8098 -665.186 2381.79
-3.65374 -666.278 2385.71
-25.125 -665.706 2383.66
-46.3865 -662.664 2372.77
-68.0241 -665.22 2381.92
-89.5304 -665.574 2383.19
-110.782 -664.266 2378.5
-132.101 -663.714 2376.53
-154.241 -666.872 2387.83
-175.581 -666.221 2385.5
-196.865 -665.52 2382.99
-218 -664.503 2379.35
-238.859 -662.903 2373.62
-261.907 -667.142 2388.8
-281.571 -662.772 2373.15
-303.864 -664.77 2380.3
-326.651 -667.514 2390.13
-347.086 -665.41 2382.6
-369.719 -667.519 2390.15
-389.342 -664.26 2378.48
-411.52 -665.474 2382.83
-432.71 -665.047 2381.3
-455.285 -666.691 2387.18
-476.418 -666.169 2385.32
-497.287 -665.339 2382.34
-519.3 -666.045 2384.87
-539.826 -664.863 2380.64
-563.562 -667.575 2390.35
-579.164 -660.806 2366.11
-605.71 -666.56 2386.72
-625.693 -664.946 2380.94
-645.535 -663.294 2375.02
-666.539 -662.904 2373.62
-689.626 -664.545 2379.5
-711.382 -664.843 2380.57
-726.855 -659.424 2361.16
-754.219 -664.794 2380.39
-773.765 -663.166 2374.56
-795.93 -663.81 2376.87
-820.596 -666.452 2386.33
-839.25 -664.201 2378.27
-857.064 -661.414 2368.29
-884.085 -665.695 2383.62
-900.301 -661.829 2369.78
-923.26 -662.985 2373.91
-948.734 -665.854 2384.19
-965.921 -662.908 2373.64
-989.582 -664.437 2379.11
-1011.76 -664.923 2380.85
-1031.59 -663.881 2377.12
-1052.87 -663.799 2376.83
-1074.49 -663.929 2377.29
-1094.85 -663.285 2374.99
-1116.35 -663.345 2375.2
-1139.88 -664.592 2379.67
-1155.34 -661.172 2367.42
-1178.34 -662.108 2370.77
-1209.21 -667.358 2389.57
-1219.4 -661.213 2367.57
-1245.45 -663.724 2376.56
-1263.79 -662.117 2370.81
-1290.32 -664.783 2380.35
-1318.34 -668.112 2392.27
-1338.86 -667.598 2390.43
-1364.1 -669.418 2396.95
0 0 0
0 0 0
0 0 0
1268.89 -768.589 2666.04
1204.72 -743.798 2580.05
1177.63 -741.374 2571.64
1128.81 -724.906 2514.52
1096.78 -718.755 2493.18
1089.11 -728.652 2527.51
1042.16 -712.128 2470.19
1013.74 -707.824 2455.26
988.028 -705.262 2446.38
973.401 -710.674 2465.15
941.389 -703.35 2439.74
919.601 -703.496 2440.25
897.086 -703.08 2438.81
875.519 -703.405 2439.94
854.52 -704.215 2442.74
830.936 -702.88 2438.12
811.63 -705.19 2446.13
786.515 -702.442 2436.59
758.334 -696.718 2416.74
740.553 -700.494 2429.84
713.488 -695.449 2412.34
693.842 -697.548 2419.62
670.421 -695.863 2413.78
644.055 -690.907 2396.58
626.414 -695.292 2411.79
603.322 -693.723 2406.35
582.546 -694.8 2410.09
559.05 -692.59 2402.42
537.54 -692.762 2403.02
512.55 -688.275 2387.45
493.806 -692.15 2400.89
471.453 -691.09 2397.22
448.777 -689.432 2391.47
425.496 -686.63 2381.75
406.378 -690.605 2395.54
382.872 -687.151 2383.55
361.714 -687.75 2385.63
341.716 -690.771 2396.11
319.727 -689.903 2393.1
298.721 -691.183 2397.54
276.291 -689.111 2390.36
255.192 -690.292 2394.45
234.471 -692.804 2403.16
211.967 -690.024 2393.52
189.316 -686.084 2379.85
168.183 -687.339 2384.21
147.079 -689.098 2390.31
125.806 -690.531 2395.28
103.558 -686.101 2379.91
82.5751 -689.922 2393.17
60.9568 -689.264 2390.88
39.2499 -686.337 2380.73
17.8037 -686.406 2380.97
-3.6613 -689.193 2390.64
-25.1163 -686.942 2382.83
-46.5962 -687.133 2383.49
-67.9732 -686.165 2380.13
-89.6799 -688.191 2387.16
-110.745 -685.46 2377.69
-132.429 -686.829 2382.44
-153.692 -685.934 2379.33
-175.733 -688.305 2387.56
-195.532 -682.338 2366.86
-218.103 -686.262 2380.47
-239.84 -687.097 2383.37
-261.295 -687.053 2383.22
-282.727 -686.959 2382.89
-304.739 -688.191 2387.16
-326.413 -688.545 2388.39
-347.391 -687.477 2384.69
-368.864 -687.459 2384.62
-390.775 -688.212 2387.23
-410.574 -685.361 2377.35
-432.233 -685.744 2378.68
-452.802 -684.443 2374.16
-474.39 -684.731 2375.16
-494.781 -683.34 2370.34
-517.305 -684.889 2375.71
-540.098 -686.657 2381.84
-564.505 -690.262 2394.35
-580.386 -683.561 2371.1
-605.543 -687.873 2386.06
-625.037 -685.677 2378.44
-646.887 -686.124 2379.99
-666.634 -684.385 2373.96
-690.26 -686.612 2381.69
-712.313 -687.188 2383.68
-732.934 -686.389 2380.91
-749.676 -682.105 2366.05
-776.284 -686.787 2382.29
-796.369 -685.602 2378.18
-820.103 -687.537 2384.89
-839.077 -685.486 2377.78
-861.498 -686.282 2380.54
-881.896 -685.467 2377.71
-903.225 -685.397 2377.47
-925.896 -686.326 2380.69
-947.493 -686.433 2381.07
-965.034 -683.664 2371.46
-987.566 -684.473 2374.26
-1009.71 -684.982 2376.03
-1029.12 -683.662 2371.45
-1054.68 -686.39 2380.92
-1077.14 -687.033 2383.14
-1100.79 -688.394 2387.87
-1114.98 -683.905 2372.29
-1138.5 -685.196 2376.78
-1166.27 -688.953 2389.81
-1187.71 -688.901 2389.62
-1204.71 -686.323 2380.68
-1221.08 -683.482 2370.83
-1244.45 -684.585 2374.65
-1266.89 -685.155 2376.63
-1287.46 -684.707 2375.08
-1313.56 -687.167 2383.61
-1325.03 -682.017 2365.75
-1372.65 -695.345 2411.98
0 0 0
0 0 0
0 0 0
0 0 0
1223.12 -778.757 2619.46
1184.07 -768.727 2585.72
1183.03 -783.461 2635.28
1116.28 -754.394 2537.51
1088.76 -751.182 2526.7
1050.1 -739.984 2489.04
1027.8 -740.071 2489.33
1005.8 -740.383 2490.38
973.106 -732.66 2464.4
959.5 -739.283 2486.68
932.916 -735.984 2475.58
903.795 -730.474 2457.05
880.45 -729.471 2453.68
857.743 -728.96 2451.96
843.709 -735.987 2475.59
830.148 -743.82 2501.94
790.981 -728.506 2450.43
759.815 -719.894 2421.46
742.263 -724.052 2435.45
716.249 -719.958 2421.68
702.348 -728.165 2449.28
676.363 -723.969 2435.17
657.058 -726.883 2444.97
632.231 -723.677 2434.19
604.275 -716.532 2410.15
586.622 -721.525 2426.95
558.846 -713.973 2401.55
544.05 -723.063 2432.12
520.83 -721.25 2426.02
497.488 -719.102 2418.8
474.423 -717.177 2412.32
450.024 -712.952 2398.11
432.088 -719.057 2418.65
406.22 -711.909 2394.6
385.464 -713.423 2399.69
364.162 -714.043 2401.78
343.746 -716.59 2410.35
320.488 -713.156 2398.8
297.413 -709.662 2387.05
276.179 -710.359 2389.39
255.596 -712.989 2398.24
233.627 -711.884 2394.52
212.979 -714.984 2404.95
190.912 -713.489 2399.92
168.991 -712.224 2395.66
148.078 -715.457 2406.54
125.602 -710.955 2391.4
104.349 -712.946 2398.09
82.4411 -710.327 2389.28
60.8578 -709.649 2387
39.771 -717.181 2412.33
17.9397 -713.262 2399.15
-3.65975 -710.43 2389.63
-25.1564 -709.54 2386.63
-46.633 -709.166 2385.38
-68.4925 -713.013 2398.32
-89.6785 -709.686 2387.13
-111.636 -712.571 2396.83
-133.12 -711.986 2394.86
-153.877 -708.22 2382.19
-175.52 -708.954 2384.66
-198.061 -712.759 2397.46
-218.89 -710.262 2389.06
-240.223 -709.702 2387.18
-261.818 -709.941 2387.98
-282.275 -707.296 2379.09
-305.104 -710.546 2390.02
-327.063 -711.476 2393.15
-348.5 -711.225 2392.3
-370.922 -712.896 2397.92
-390.005 -708.319 2382.53
-414.994 -714.387 2402.94
-433.789 -709.72 2387.24
-456.594 -711.744 2394.05
-479.297 -713.432 2399.73
-499.316 -711.154 2392.06
-520.802 -711.066 2391.77
-542.883 -711.765 2394.12
-563.202 -710.19 2388.82
-581.107 -705.798 2374.05
-604.865 -708.575 2383.39
-628.985 -711.57 2393.46
-650.207 -711.198 2392.21
-668.765 -708.028 2381.55
-691.114 -708.945 2384.63
-712.093 -708.443 2382.95
-732.713 -707.625 2380.19
-755.275 -708.675 2383.72
-779.04 -710.763 2390.75
-800.119 -710.356 2389.38
-819.247 -708.283 2382.41
-842.377 -709.687 2387.13
-862.582 -708.618 2383.53
-884.016 -708.587 2383.43
-903.343 -706.908 2377.78
-927.068 -708.669 2383.7
-954.752 -713.308 2399.31
-968.089 -707.26 2378.97
-990.683 -708.091 2381.76
-1014.77 -709.933 2387.96
-1046.2 -716.724 2410.8
-1052.9 -706.647 2376.9
-1080.5 -710.716 2390.59
-1098.15 -708.205 2382.14
-1120.12 -708.531 2383.24
-1143.31 -709.596 2386.82
-1162.68 -708.294 2382.44
-1193.1 -713.655 2400.48
-1206.27 -708.688 2383.77
-1226.67 -708.065 2381.67
-1261.34 -715.561 2406.89
-1276.29 -711.805 2394.25
-1311.28 -719.169 2419.02
-1336.29 -720.904 2424.86
-1371.26 -727.867 2448.28
-1376.79 -719.236 2419.25
0 0 0
0 0 0
0 0 0
0 0 0
0 0 0
1194.03 -798.685 2607.47
1155.3 -788.282 2573.51
1106.16 -770.212 2514.52
1063.21 -755.781 2467.4
1068.06 -775.443 2531.59
1024.85 -760.311 2482.19
994.616 -754.337 2462.69
981.583 -761.438 2485.87
953.937 -757.27 2472.26
922.725 -750.004 2448.54
893.831 -744.312 2429.96
877.516 -749.072 2445.5
858.679 -751.869 2454.63
833.756 -749.344 2446.39
817.687 -754.857 2464.39
788.594 -748.317 2443.03
751.759 -733.844 2395.79
738.322 -742.032 2422.52
712.15 -737.529 2407.82
702.045 -749.906 2448.22
670.427 -739.361 2413.8
650.795 -741.772 2421.67
624.964 -737.037 2406.21
605.65 -739.925 2415.64
583.885 -739.921 2415.62
560.779 -738.153 2409.85
536.899 -735.182 2400.15
516.168 -736.455 2404.31
493.787 -735.382 2400.81
473.468 -737.421 2407.46
450.529 -735.38 2400.8
426.497 -731.261 2387.35
405.715 -732.571 2391.63
384.831 -733.833 2395.75
362.557 -732.438 2391.2
340.204 -730.697 2385.51
318.816 -730.934 2386.28
297.63 -731.7 2388.78
275.28 -729.503 2381.61
256.588 -737.448 2407.55
233.237 -732.23 2390.51
211.777 -732.495 2391.38
186.572 -718.397 2345.36
167.765 -728.482 2378.28
147.065 -732.093 2390.07
125.792 -733.606 2395.01
103.55 -728.921 2379.71
82.1702 -729.448 2381.43
60.5115 -726.993 2373.42
39.1992 -728.29 2377.65
17.8521 -731.29 2387.45
-3.65357 -730.722 2385.59
-25.124 -730.1 2383.56
-46.7226 -732.06 2389.96
-67.8854 -728.109 2377.06
-89.3479 -728.496 2378.33
-110.914 -729.414 2381.32
-132.524 -730.278 2384.14
-154.112 -730.795 2385.83
-175.647 -730.965 2386.39
-196.941 -730.206 2383.91
-218.262 -729.686 2382.21
-240.11 -730.862 2386.05
-260.235 -727.032 2373.55
-283.273 -731.304 2387.49
-301.69 -723.886 2363.28
-325.874 -730.371 2384.45
-346.96 -729.538 2381.73
-368.409 -729.523 2381.68
-389.985 -729.746 2382.41
-413.988 -734.252 2397.12
-433.597 -730.903 2386.18
-455.495 -731.546 2388.28
-476.458 -730.697 2385.51
-495.381 -726.93 2373.21
-516.91 -727.139 2373.89
-538.626 -727.583 2375.35
-560.768 -728.549 2378.5
-581.787 -728.036 2376.82
-604.859 -730.039 2383.36
-628 -731.985 2389.72
-644.164 -725.939 2369.98
-669.806 -730.619 2385.26
-690.585 -729.869 2382.81
-709.63 -727.387 2374.7
-728.777 -725.151 2367.4
-756.163 -731.008 2386.53
-771.621 -725.328 2367.98
-798.618 -730.509 2384.9
-817.095 -727.829 2376.15
-840.815 -729.837 2382.7
-861.973 -729.576 2381.85
-879.388 -726.238 2370.95
-901.016 -726.453 2371.66
-929.224 -731.842 2389.25
-944.497 -727.03 2373.54
-962.008 -724.115 2364.02
-989.663 -728.797 2379.31
-1014.49 -731.24 2387.28
-1035.93 -731.194 2387.13
-1056.53 -730.57 2385.1
-1075.06 -728.567 2378.56
-1098.68 -730.021 2383.3
-1116.57 -727.689 2375.69
-1141.37 -729.861 2382.78
-1161.15 -728.797 2379.31
-1183.38 -729.291 2380.92
-1210.81 -732.91 2392.74
-1224.65 -728.323 2377.76
-1250.77 -731.065 2386.71
-1271.95 -730.883 2386.12
-1282.48 -724.687 2365.89
-1324.37 -736.121 2403.22
-1342.17 -734.015 2396.34
-1382.27 -743.982 2428.88
0 0 0
0 0 0
0 0 0
0 0 0
0 0 0
1187.08 -817.384 2592.28
1139.82 -800.595 2539.03
1127.36 -808.062 2562.71
1074.95 -786.604 2494.66
1044.06 -780.317 2474.72
1025.16 -782.904 2482.93
991.329 -773.958 2454.55
973.752 -777.58 2466.04
954.212 -779.767 2472.98
933.156 -780.79 2476.22
911.002 -780.922 2476.64
891.379 -783.285 2484.13
849.746 -765.931 2429.1
826.269 -764.457 2424.42
819.413 -778.698 2469.58
802.351 -783.765 2485.65
768.061 -771.81 2447.74
748.588 -774.478 2456.2
725.671 -773.636 2453.53
693.52 -762.589 2418.5
673.438 -764.526 2424.64
650.231 -762.926 2419.57
628.752 -763.314 2420.79
605.12 -761.02 2413.52
579.776 -756.323 2398.62
558.549 -756.842 2400.27
535.381 -754.665 2393.37
516.309 -758.322 2404.96
495.847 -760.169 2410.82
471.011 -755.171 2394.97
450.12 -756.323 2398.62
429.135 -757.425 2402.12
405.825 -754.321 2392.28
384.326 -754.426 2392.61
364.371 -757.752 2403.16
343.53 -759.542 2408.83
319.912 -755.018 2394.49
298.179 -754.611 2393.19
276.34 -753.85 2390.78
255.031 -754.529 2392.93
233.666 -755.154 2394.92
211.662 -753.628 2390.08
190.714 -755.943 2397.42
168.145 -751.605 2383.66
146.925 -752.911 2387.8
125.572 -753.862 2390.82
103.991 -753.557 2389.85
82.3884 -752.896 2387.76
60.6733 -750.376 2379.76
39.2093 -749.903 2378.26
17.8137 -751.18 2382.31
-3.65156 -751.8 2384.28
-25.1102 -751.161 2382.25
-46.6035 -751.67 2383.87
-67.9574 -750.319 2379.58
-89.7648 -753.422 2389.42
-111.342 -753.764 2390.51
-132.663 -752.548 2386.65
-153.044 -747.076 2369.3
-175.551 -752.055 2385.09
-197.698 -754.574 2393.08
-218.058 -750.444 2379.98
-238.643 -747.763 2371.48
-260.93 -750.416 2379.89
-282.447 -750.619 2380.53
-304.437 -751.961 2384.79
-325.574 -751.16 2382.25
-346.504 -750.009 2378.6
-368.219 -750.593 2380.45
-388.089 -747.557 2370.82
-414.586 -756.938 2400.58
-435.597 -755.87 2397.19
-453.118 -749.132 2375.82
-473.414 -747.384 2370.27
-493.971 -746.179 2366.45
-518.696 -751.112 2382.1
-538.37 -748.628 2374.22
-561.82 -751.384 2382.96
-583.335 -751.444 2383.15
-603.166 -749.408 2376.69
-626.007 -751.123 2382.13
-645.887 -749.289 2376.32
-671.834 -754.385 2392.48
-691.347 -752.165 2385.44
-710.697 -749.907 2378.28
-734.108 -751.94 2384.72
-748.611 -744.993 2362.69
-780.51 -755.263 2395.26
-799.812 -753.119 2388.46
-818.33 -750.368 2379.74
-834.742 -745.877 2365.49
-861.64 -750.745 2380.93
-884.732 -752.141 2385.36
-910.227 -755.464 2395.9
-923.316 -748.577 2374.06
-942.747 -747.026 2369.14
-972.54 -753.573 2389.9
-983.427 -745.505 2364.31
-1008.51 -748.312 2373.22
-1030.62 -748.839 2374.89
-1060.08 -754.586 2393.11
-1080.67 -753.906 2390.96
-1093.11 -747.685 2371.23
-1115.84 -748.599 2374.13
-1140.63 -750.837 2381.23
-1165.46 -753.023 2388.16
-1182.2 -749.993 2378.55
-1212.22 -755.343 2395.52
-1224.34 -749.554 2377.16
-1244.19 -748.611 2374.17
-1263.94 -747.638 2371.08
-1294.6 -753.049 2388.24
-1320.79 -755.725 2396.73
-1346.57 -758.084 2404.21
-1375.26 -761.977 2416.56
0 0 0
0 0 0
0 0 0
0 0 0
0 0 0
0 0 0
1199.74 -866.763 2672.52
1148.41 -846.664 2610.55
1112.37 -837.243 2581.5
1074.49 -826.003 2546.84
1062.69 -834.752 2573.82
1022.07 -820.755 2530.66
976.799 -802.299 2473.76
965.8 -811.786 2503.01
932.347 -802.403 2474.08
924.736 -815.344 2513.98
898.017 -811.664 2502.63
869.219 -805.869 2484.76
841.278 -800.582 2468.46
830.711 -811.99 2503.64
798.97 -802.76 2475.18
777.661 -803.784 2478.33
746.786 -794.688 2450.29
722.02 -791.737 2441.19
695.783 -786.936 2426.39
675.371 -788.627 2431.6
657.554 -793.562 2446.82
625.047 -780.496 2406.53
608.497 -787.132 2426.99
588.646 -789.834 2435.32
570.343 -794.903 2450.95
541.328 -784.85 2419.95
518.817 -783.777 2416.64
497.673 -784.766 2419.7
474.053 -781.763 2410.44
450.563 -778.697 2400.98
430.057 -780.739 2407.28
408.138 -780.295 2405.91
383.95 -775.222 2390.27
364.581 -779.852 2404.54
340.902 -775.267 2390.41
322.368 -782.552 2412.87
300.236 -781.526 2409.7
276.283 -775.228 2390.29
255.986 -778.992 2401.89
234.632 -779.942 2404.82
211.869 -775.918 2392.41
190.445 -776.446 2394.04
169.181 -777.842 2398.35
146.835 -773.948 2386.34
125.295 -773.69 2385.55
103.927 -774.609 2388.38
82.5672 -776.088 2392.94
60.5392 -770.11 2374.51
39.3265 -773.635 2385.37
17.9308 -777.721 2397.97
-3.65951 -774.963 2389.47
-25.185 -774.925 2389.35
-46.6306 -773.596 2385.25
-68.4862 -777.762 2398.1
-89.6736 -774.161 2387
-110.653 -770.506 2375.73
-132.529 -773.267 2384.24
-154.24 -774.429 2387.82
-175.793 -774.61 2388.38
-197.969 -777.195 2396.35
-218.361 -772.959 2383.29
-239.932 -773.28 2384.28
-261.501 -773.545 2385.1
-283.626 -775.286 2390.47
-304.739 -774.213 2387.16
-326.157 -774.004 2386.51
-346.578 -771.602 2379.1
-369.171 -774.034 2386.6
-389.715 -772.138 2380.76
-413.208 -775.977 2392.6
-434.493 -775.496 2391.11
-455.007 -773.749 2385.72
-476.141 -773.165 2383.93
-495.652 -770.11 2374.51
-520.035 -774.566 2388.24
-539.979 -772.319 2381.32
-560.205 -770.63 2376.11
-585.746 -776.108 2393
-604.729 -772.817 2382.85
-628.107 -775.175 2390.12
-643.806 -768.214 2368.66
-669.939 -773.75 2385.73
-689.936 -772.076 2380.57
-710.622 -771.251 2378.02
-737.402 -776.894 2395.42
-757.786 -775.669 2391.65
-773.915 -770.277 2375.02
-799.434 -774.271 2387.33
-818.577 -772.04 2380.46
-836.603 -768.897 2370.77
-868.092 -777.977 2398.76
-887.669 -776.199 2393.28
-906.766 -774.095 2386.79
-926.4 -772.537 2381.99
-948.737 -773.252 2384.19
-971.415 -774.207 2387.14
-989.67 -771.672 2379.32
-1014.12 -773.972 2386.41
-1037.48 -775.36 2390.69
-1061.62 -777.268 2396.58
-1077.1 -772.887 2383.07
-1100.36 -774.144 2386.95
-1115.45 -769.721 2373.31
-1139.82 -771.743 2379.54
-1162.96 -772.874 2383.03
-1180.11 -770.055 2374.34
-1210.52 -775.834 2392.16
-1238.93 -780.152 2405.47
-1252.3 -775.016 2389.63
-1282.12 -780.06 2405.18
-1283.68 -768.032 2368.1
-1328.3 -781.737 2410.36
-1337.72 -774.618 2388.41
-1381.05 -787.049 2426.74
0 0 0
0 0 0
0 0 0
0 0 0
0 0 0
0 0 0
0 0 0
1146.56 -868.788 2606.36
1106.04 -855.605 2566.81
1078.71 -852.279 2556.84
1037.98 -837.993 2513.98
1006.45 -830.664 2491.99
979.424 -826.801 2480.4
958.027 -827.62 2482.86
929.467 -822.144 2466.43
908.697 -823.458 2470.37
895.868 -832.215 2496.65
864.924 -824.162 2472.48
835.554 -817.221 2451.66
812.78 -816.532 2449.59
787.064 -812.765 2438.3
765.197 -812.871 2438.61
740.502 -809.89 2429.67
719.693 -811.107 2433.32
709.279 -824.483 2473.45
672.412 -806.981 2420.94
651.706 -808.352 2425.05
630.412 -809.062 2427.18
606.265 -806.03 2418.09
581.342 -801.701 2405.1
565.658 -810.272 2430.82
539.53 -803.972 2411.92
517.088 -802.864 2408.59
495.052 -802.318 2406.96
468.611 -794.256 2382.77
453.078 -804.795 2414.38
425.933 -794.732 2384.19
407.711 -801.132 2403.4
385.811 -800.617 2401.85
363.77 -799.731 2399.19
342.019 -799.414 2398.24
318.881 -795.589 2386.77
298.155 -797.666 2393
276.971 -798.747 2396.24
256.416 -801.976 2405.93
234.288 -800.429 2401.29
210.47 -792.206 2376.62
191.821 -803.779 2411.34
168.798 -797.64 2392.92
147.319 -798.065 2394.2
125.061 -793.696 2381.09
103.691 -794.32 2382.96
82.347 -795.519 2386.56
60.692 -793.5 2380.5
39.1746 -792.054 2376.16
17.7411 -790.866 2372.6
-3.65264 -794.996 2384.99
-25.0478 -792.111 2376.33
-46.6545 -795.492 2386.48
-67.7619 -790.912 2372.73
-89.7551 -796.388 2389.17
-111.065 -794.853 2384.56
-132.492 -794.525 2383.58
-153.647 -792.877 2378.63
-174.769 -791.488 2374.46
-197.209 -795.719 2387.16
-217.263 -790.435 2371.31
-238.442 -789.824 2369.47
-260.604 -792.303 2376.91
-281.312 -790.322 2370.97
-303.817 -793.311 2379.93
-323.5 -789.025 2367.07
-348.955 -798.475 2395.43
-369.658 -796.585 2389.75
-389.16 -792.455 2377.37
-412.457 -796.083 2388.25
-434.556 -797.153 2391.46
-455.611 -796.298 2388.89
-476.962 -796.012 2388.04
-497.292 -794.122 2382.37
-520.524 -796.83 2390.49
-538.181 -791.128 2373.39
-559.436 -790.949 2372.85
-582.453 -793.182 2379.55
-605.31 -795.047 2385.14
-625.077 -792.864 2378.59
-643.443 -789.108 2367.32
-670.843 -796.317 2388.95
-689.814 -793.383 2380.15
-707.775 -789.499 2368.5
-732.785 -793.475 2380.42
-753.34 -792.538 2377.61
-777.345 -795.183 2385.55
-796.588 -792.944 2378.83
-819.393 -794.277 2382.83
-842.849 -796.155 2388.47
-861.473 -793.491 2380.47
-881.578 -792.285 2376.86
-901.911 -791.338 2374.01
-927.339 -794.801 2384.4
-948.993 -794.945 2384.84
-967.718 -792.685 2378.05
-990.32 -793.629 2380.89
-1011.04 -793.058 2379.17
-1037.01 -796.542 2389.62
-1058.82 -796.755 2390.26
-1082.95 -798.669 2396.01
-1094.29 -791.258 2373.77
-1112.56 -789.052 2367.16
-1138.96 -792.577 2377.73
-1161.67 -793.458 2380.37
-1190.33 -798.298 2394.89
-1198.37 -789.384 2368.15
-1245.04 -805.778 2417.33
-1249.17 -794.557 2383.67
-1272.62 -795.791 2387.37
-1308.41 -804.573 2413.72
-1329.69 -804.29 2412.87
-1339.63 -797.271 2391.81
-1380.1 -808.353 2425.06
0 0 0
0 0 0
0 0 0
0 0 0
0 0 0
0 0 0
0 0 0
0 0 0
0 0 0
1085.44 -880.775 2572.79
1071.54 -888.472 2595.27
1026.54 -870.145 2541.74
1001.23 -868.049 2535.62
953.32 -845.813 2470.66
954.756 -867.337 2533.54
910.102 -847.021 2474.19
898.178 -856.911 2503.08
873.481 -854.81 2496.94
854.664 -858.505 2507.74
833.524 -860.003 2512.11
795.323 -843.491 2463.88
776.371 -847.031 2474.22
754.706 -847.734 2476.28
732.693 -848.076 2477.27
715.855 -854.618 2496.38
681.37 -839.833 2453.2
649.297 -827.13 2416.09
629.506 -829.734 2423.7
608.623 -831.034 2427.49
588.752 -833.864 2435.76
560.746 -824.945 2409.71
536.258 -820.693 2397.29
554.746 -884.614 2584.01
501.582 -834.872 2438.7
476.888 -830.13 2424.85
452.404 -825.317 2410.79
430.303 -824.585 2408.66
407.736 -822.835 2403.54
389.89 -830.95 2427.25
359.673 -812.097 2372.18
343.777 -825.239 2410.57
324.044 -830.321 2425.41
298.172 -819.272 2393.14
277.311 -821.343 2399.19
255.522 -820.782 2397.55
233.93 -820.807 2397.62
212.738 -822.386 2402.23
191.075 -822.294 2401.97
168.473 -817.619 2388.31
146.976 -817.729 2388.63
125.366 -817.134 2386.89
104.19 -819.715 2394.43
82.5468 -819.002 2392.35
61.0088 -819.2 2392.92
39.1769 -813.509 2376.3
17.9827 -823.304 2404.91
-3.66007 -818.141 2389.83
-25.2188 -819.073 2392.56
-46.7122 -818.002 2389.43
-67.9553 -814.606 2379.51
-90.1499 -821.51 2399.67
-110.982 -815.731 2382.79
-133.707 -823.482 2405.43
-153.473 -813.386 2375.94
-175.128 -814.55 2379.34
-197.22 -817.269 2387.29
-218.747 -817.345 2387.51
-240.735 -818.973 2392.26
-262.892 -820.863 2397.79
-282.227 -814.323 2378.68
-305.278 -818.671 2391.38
-326.351 -817.491 2387.93
-347.338 -816.256 2384.33
-369.829 -818.493 2390.86
-391.643 -819.066 2392.54
-411.845 -816.385 2384.7
-433.743 -817.167 2386.99
-455.473 -817.571 2388.17
-477.562 -818.555 2391.04
-497.343 -815.668 2382.61
-523.399 -822.886 2403.69
-544.119 -821.475 2399.57
-562.554 -816.853 2386.07
-584.103 -816.928 2386.29
-603.982 -814.744 2379.91
-627.814 -817.859 2389.01
-648.023 -816.203 2384.17
-669.647 -816.381 2384.69
-691.237 -816.507 2385.06
-716.869 -821.255 2398.93
-737.653 -820.334 2396.24
-753.464 -814.093 2378.01
-771.284 -810.307 2366.95
-790.385 -808.034 2360.31
-817.372 -813.732 2376.95
-839.83 -814.745 2379.91
-862.933 -816.317 2384.51
-884.403 -816.306 2384.47
-906.836 -817.163 2386.98
-925.802 -814.929 2380.45
-951.658 -818.724 2391.53
-978.354 -823.056 2404.19
-994.207 -818.277 2390.23
-1009.79 -813.481 2376.22
-1031.93 -814.063 2377.92
-1047.09 -809.221 2363.78
-1078.1 -816.576 2385.26
-1094.18 -812.563 2373.54
-1118.56 -814.747 2379.92
-1157.43 -827.202 2416.3
-1164.92 -817.188 2387.05
-1193.2 -821.853 2400.68
-1216.44 -822.942 2403.86
-1236.16 -821.656 2400.1
-1244.66 -813.084 2375.06
-1282.91 -823.909 2406.68
-1314.71 -830.298 2425.35
-1339.32 -832.011 2430.35
-1356.44 -829.096 2421.83
-1400.41 -842.419 2460.75
0 0 0
0 0 0
0 0 0
0 0 0
0 0 0
0 0 0
0 0 0
0 0 0
0 0 0
0 0 0
1032.29 -878.451 2500.21
0 0 0
992.843 -883.433 2514.39
966.37 -879.954 2504.48
935.981 -872.657 2483.72
926.528 -885.001 2518.85
0 0 0
0 0 0
0 0 0
0 0 0
781.352 -850.481 2420.6
772.679 -865.188 2462.46
746.133 -860.159 2448.14
705.266 -837.812 2384.54
705.379 -864.272 2459.85
678.327 -858.085 2442.24
656.937 -858.885 2444.52
632.374 -855.449 2434.74
609.32 -853.88 2430.27
585.637 -851.279 2422.87
561.186 -847.319 2411.6
545.979 -857.559 2440.74
510.78 -835.939 2379.21
491.283 -839.248 2388.63
469.583 -838.926 2387.71
443.337 -830.06 2362.48
430.8 -847.261 2411.44
405.049 -838.922 2387.7
379.239 -829.519 2360.94
362.515 -840.053 2390.92
340.17 -838.069 2385.27
317.903 -836.022 2379.45
294.434 -830.291 2363.14
273.513 -831.41 2366.32
254.618 -839.399 2389.06
228.884 -824.236 2345.9
211.484 -839.051 2388.07
189.349 -836.308 2380.26
167.74 -835.485 2377.92
145.583 -831.293 2365.99
123.533 -826.375 2351.99
103.613 -836.629 2381.17
81.5037 -829.933 2362.12
60.6226 -835.435 2377.78
39.0367 -831.929 2367.8
17.714 -832.341 2368.97
-3.60941 -828.051 2356.76
-24.7806 -826.022 2350.99
-46.7666 -840.506 2392.21
-67.4429 -829.74 2361.57
-88.8011 -830.514 2363.77
-110.191 -831.228 2365.8
-131.974 -834.198 2374.26
-152.135 -827.511 2355.22
-174.296 -832.015 2368.04
-194.11 -825.548 2349.64
-218.659 -838.516 2386.55
-238.275 -831.935 2367.82
-259.801 -832.56 2369.59
-280.895 -831.807 2367.45
-302.766 -833.3 2371.7
-322.643 -829.472 2360.81
-346.661 -836.103 2379.68
-363.767 -826.261 2351.66
-388.441 -833.747 2372.97
-410.567 -835.269 2377.3
-430.373 -832.155 2368.44
-453.359 -835.191 2377.08
-473.13 -832.299 2368.85
-498.908 -839.767 2390.11
-517.372 -834.816 2376.02
-535.139 -829.178 2359.97
-557.804 -831.271 2365.93
-582.334 -835.886 2379.06
-598.899 -829.146 2359.88
-624.242 -834.605 2375.41
-647.323 -836.778 2381.6
-667.649 -835.364 2377.57
-686.017 -831.665 2367.05
-709.05 -833.674 2372.76
-730.738 -834.03 2373.78
-754.688 -836.874 2381.87
-769.322 -829.515 2360.93
-794.71 -833.836 2373.23
-815.621 -833.357 2371.86
-837.093 -833.46 2372.16
-855.934 -831.004 2365.17
-873.952 -827.887 2356.3
-898.187 -830.669 2364.21
-927.319 -837.745 2384.35
-947.227 -836.356 2380.4
-968.811 -836.476 2380.74
-992.173 -838.093 2385.34
-1009.6 -834.732 2375.77
-1038.19 -840.549 2392.33
-1053.48 -835.582 2378.2
-1078.3 -838.225 2385.72
-1091.22 -831.689 2367.11
-1111.91 -831.212 2365.76
-1134.16 -831.904 2367.73
-1173.54 -844.896 2404.7
-1173.92 -829.85 2361.88
-1196.88 -831.017 2365.2
-1235.12 -842.571 2398.09
-1239.22 -830.831 2364.67
-1271.97 -838.381 2386.16
-1288.13 -834.921 2376.31
-1312.86 -837.035 2382.33
-1331.53 -835.287 2377.35
-1373.26 -847.825 2413.04
0 0 0
0 0 0
0 0 0
0 0 0
0 0 0
0 0 0
0 0 0
0 0 0
0 0 0
0 0 0
0 0 0
0 0 0
0 0 0
989.535 -924.151 2564.52
949.992 -908.431 2520.9
952.301 -932.943 2588.92
0 0 0
0 0 0
0 0 0
0 0 0
0 0 0
794.442 -912.366 2531.81
777.524 -919.331 2551.14
0 0 0
716.534 -900.452 2498.75
0 0 0
652.977 -875.598 2429.78
651.804 -904.342 2509.55
613.878 -882.326 2448.45
583.168 -869.426 2412.66
569.929 -882.585 2449.17
542.64 -874.169 2425.82
516.513 -866.995 2405.91
499.246 -874.719 2427.35
474.297 -869.074 2411.68
460.023 -883.385 2451.39
429.444 -866.25 2403.84
405.502 -861.396 2390.38
390.289 -875.578 2429.73
366.448 -870.94 2416.86
344.008 -869.255 2412.18
320.505 -864.478 2398.93
300.477 -869.06 2411.64
275.123 -857.748 2380.25
254.201 -859.512 2385.15
236.009 -871.684 2418.92
211.717 -861.515 2390.7
191.351 -866.822 2405.43
168.656 -861.588 2390.91
146.384 -857.301 2379.01
125.156 -858.706 2382.91
103.238 -854.969 2372.54
81.9537 -855.913 2375.16
60.5224 -855.439 2373.84
39.1274 -855.244 2373.3
17.8395 -859.732 2385.76
-3.64959 -858.736 2382.99
-25.2457 -863.101 2395.11
-46.7073 -860.964 2389.18
-68.0571 -858.766 2383.07
-89.1495 -855.151 2373.05
