# .PCD v0.7 - Point Cloud Data file format
VERSION 0.7
FIELDS x y z
SIZE 4 4 4
TYPE F F F
COUNT 1 1 1
WIDTH 1977
HEIGHT 1
VIEWPOINT 0 0 0 1 0 0 0
POINTS 1977
DATA ascii
-695.939 593.779 2338.42
-722.239 598.295 2356.21
-737.381 593.573 2337.61
-761.77 596.35 2348.55
-781.37 595.329 2344.53
-802.43 595.445 2344.98
-829.246 599.719 2361.81
-845.737 596.498 2349.13
-866.016 596.04 2347.33
-888.622 597.167 2351.77
-908.085 596.18 2347.88
-927.793 595.393 2344.78
-954.336 598.931 2358.71
-976.203 599.445 2360.74
-993.119 596.962 2350.96
-1015.62 597.867 2354.52
-1033.4 596.018 2347.24
-1057.01 597.533 2353.21
-1072.54 594.509 2341.3
-1098.55 597.303 2352.3
-1128.44 602.059 2371.03
-1143.23 598.735 2357.94
-1165.98 599.621 2361.43
-1197.04 604.676 2381.34
-1206.56 598.862 2358.44
-1222.9 596.576 2349.44
-1236.77 593.182 2336.07
-1257.79 593.275 2336.44
-1291.42 599.211 2359.81
-1333.85 608.977 2398.27
-1316.7 591.663 2330.09
1199.41 592.59 2418.67
1175.41 591.362 2413.65
1152.26 590.527 2410.24
1129.93 590.09 2408.46
1109.21 590.488 2410.08
1077.96 585.191 2388.47
1057.25 585.515 2389.79
1039.57 587.563 2398.15
1011.79 583.873 2383.08
1000.66 589.836 2407.43
974.039 586.729 2394.74
947.919 583.793 2382.76
927.588 584.367 2385.1
903.012 582.233 2376.39
879.878 580.948 2371.15
862.75 583.662 2382.23
835.984 579.829 2366.58
816.397 580.906 2370.97
790.495 577.427 2356.78
775.054 581.608 2373.84
755.162 582.59 2377.85
732.574 581.489 2373.35
708.058 578.746 2362.16
688.304 579.846 2366.65
666.848 579.538 2365.39
644.346 578.27 2360.22
626.113 580.877 2370.86
603.091 579.068 2363.47
583.411 580.453 2369.13
560.677 578.791 2362.34
540.838 580.102 2367.7
520.455 580.914 2371.01
496.975 578.191 2359.9
477.113 579.623 2365.74
456.751 580.551 2369.53
432.777 576.756 2354.04
412.057 577.132 2355.57
391.92 578.408 2360.78
368.95 575.412 2348.55
348.591 576.371 2352.46
328.005 577.054 2355.26
307.474 577.934 2358.85
286.508 578.065 2359.38
264.752 576.497 2352.98
243.793 576.542 2353.17
223.18 577.493 2357.05
201.487 575.556 2349.14
181.111 577.372 2356.55
159.671 575.822 2350.23
138.848 576.366 2352.45
117.588 574.966 2346.73
96.7416 575.424 2348.6
75.6686 574.412 2344.47
54.6877 573.595 2341.14
33.89 574.876 2346.36
12.9606 574.448 2344.62
-7.93383 573.74 2341.73
-28.9299 576.081 2351.28
-49.9071 576.238 2351.92
-70.6271 574.211 2343.65
-91.9888 577.135 2355.59
-112.345 573.834 2342.11
-132.727 571.681 2333.32
-154.217 574.237 2343.76
-175.879 576.747 2354
-196.817 576.603 2353.41
-216.565 573.335 2340.07
-238.218 575.24 2347.85
-258.496 573.786 2341.92
-279.916 574.894 2346.44
-300.651 574.54 2344.99
-322.262 575.797 2350.12
-342.112 573.947 2342.57
-363.591 574.883 2346.39
-383.221 572.956 2338.53
-404.673 573.809 2342.01
-426.155 574.619 2345.32
-448.573 576.557 2353.22
-467.288 573.775 2341.87
-488.95 574.694 2345.62
-509.815 574.64 2345.4
-529.566 573.384 2340.27
-551.197 574.181 2343.53
-573.767 575.863 2350.39
-592.117 573.34 2340.09
-615.185 575.401 2348.51
-632.245 571.892 2334.19
-656.629 575.021 2346.96
-679.02 576.266 2352.04
-698.674 575.181 2347.61
-717.353 573.381 2340.26
-741.138 575.649 2349.52
-762.622 576.054 2351.17
-780.697 573.931 2342.51
-803.944 575.622 2349.41
-824.025 575.018 2346.94
-847.977 577.078 2355.35
-867.625 576.18 2351.69
-887.852 575.7 2349.73
-909.05 575.857 2350.37
-926.259 573.538 2340.9
-952.777 576.957 2354.86
-972.747 576.349 2352.38
-989.587 573.952 2342.59
-1009.31 573.294 2339.91
-1028.55 572.39 2336.22
-1055.28 575.605 2349.34
-1074.82 574.856 2346.28
-1094.68 574.298 2344.01
-1120.74 576.955 2354.85
-1134.97 573.536 2340.9
-1155.42 573.331 2340.06
-1187.22 578.658 2361.8
-1205.02 577.101 2355.45
-1221.78 575.103 2347.29
-1258.02 582.191 2376.22
-1273.3 579.502 2365.25
-1305.73 584.58 2385.97
-1312.25 578.079 2359.44
-1392.44 603.726 2464.12
1197.48 570.103 2414.76
1182.49 573.278 2428.21
1149.54 567.695 2404.56
1126.43 566.854 2400.99
1102.5 565.558 2395.51
1080.2 565.066 2393.42
1055.5 563.274 2385.83
1040.19 566.522 2399.59
1019.66 566.998 2401.61
991.156 562.973 2384.56
966.178 560.815 2375.42
948.509 562.898 2384.24
925.694 561.953 2380.24
900.462 559.461 2369.68
879.76 559.732 2370.83
858.989 559.971 2371.84
839.127 560.83 2375.48
817.251 560.352 2373.46
795.669 560.056 2372.2
772.243 558.41 2365.23
755.675 561.771 2379.46
733.075 560.711 2374.98
709.102 558.508 2365.64
686.329 557.143 2359.86
663.608 555.735 2353.9
647.108 559.615 2370.33
625.811 559.469 2369.72
602.556 557.501 2361.38
582.2 558.17 2364.21
561.532 558.579 2365.95
536.458 554.466 2348.52
517.287 556.367 2356.58
497.542 557.786 2362.59
476.89 558.269 2364.63
456.725 559.392 2369.39
434.157 557.54 2361.54
411.192 554.962 2350.63
390.143 554.833 2350.08
370.891 557.389 2360.91
348.142 554.681 2349.44
327.853 555.797 2354.16
306.578 555.28 2351.97
287.081 558.144 2364.1
264.957 555.947 2354.8
243.38 554.621 2349.18
221.702 552.793 2341.44
201.643 555.043 2350.97
180.433 554.276 2347.72
159.136 553.008 2342.35
138.785 555.139 2351.37
118.069 556.312 2356.34
96.4569 552.853 2341.69
75.9476 555.55 2353.12
54.9805 555.681 2353.67
33.8745 553.702 2345.29
12.9654 553.748 2345.48
-7.94334 553.524 2344.53
-28.809 552.798 2341.46
-49.9464 555.706 2353.78
-70.8289 554.896 2350.35
-91.5296 553.357 2343.83
-112.852 555.449 2352.69
-133.327 553.369 2343.88
-154.273 553.542 2344.61
-174.638 551.84 2337.4
-196.322 554.221 2347.49
-217.27 554.27 2347.69
-239.483 557.25 2360.32
-259.122 554.244 2347.58
-279.784 553.713 2345.34
-300.88 554.055 2346.78
-321.846 554.128 2347.09
-341.949 552.796 2341.45
-363.268 553.472 2344.31
-384.61 554.106 2347
-405.472 554.019 2346.63
-424.033 550.952 2333.64
-445.44 551.695 2336.79
-467.63 553.3 2343.58
-488.909 553.735 2345.43
-510.598 554.579 2349
-529.516 552.466 2340.05
-553.153 555.249 2351.84
-570.94 552.173 2338.81
-593.011 553.31 2343.63
-615.616 554.851 2350.15
-636.759 555.015 2350.85
-654.191 552.039 2338.24
-678.945 555.234 2351.78
-695.252 551.536 2336.11
-718.975 553.766 2345.56
-737.817 552.215 2338.99
-763.728 555.897 2354.58
-784.907 556.028 2355.14
-807.941 557.433 2361.09
-824.553 554.448 2348.45
-847.856 555.999 2355.02
-868.171 555.562 2353.17
-887.368 554.448 2348.45
-901.154 550.082 2329.96
-930.771 555.359 2352.31
-949.688 554.159 2347.22
-968.473 552.936 2342.04
-987.503 551.901 2337.66
-1015.31 555.715 2353.82
-1031.89 553.351 2343.8
-1053.47 553.709 2345.32
-1084.38 558.862 2367.14
-1094.45 553.284 2343.52
-1124.29 557.722 2362.32
-1137.28 553.791 2345.66
-1159.5 554.414 2348.3
-1188.72 558.308 2364.8
-1202.08 554.743 2349.7
-1206.58 547.281 2318.09
-1243.55 554.552 2348.89
-1262.33 553.604 2344.87
-1273.95 549.596 2327.9
-1320.02 560.342 2373.41
-1340.15 559.912 2371.59
1191.98 546.056 2403.67
1186.96 553.713 2437.38
1142.94 543.122 2390.76
1122.02 543.31 2391.59
1093.24 539.632 2375.4
1078.35 542.796 2389.32
1051.7 540.052 2377.24
1033.36 541.546 2383.82
1011.03 540.974 2381.3
983.436 537.493 2365.98
964.498 538.698 2371.29
947.957 541.326 2382.85
921.609 538.345 2369.73
903.753 540.301 2378.34
886.05 542.445 2387.78
861.153 540.182 2377.82
836.365 537.874 2367.66
813.281 536.571 2361.93
797.079 539.861 2376.41
775.439 539.546 2375.02
750.816 537.08 2364.16
728.341 536.052 2359.64
705.334 534.56 2353.07
685.393 535.371 2356.64
666.144 536.792 2362.9
644.435 536.257 2360.54
624.469 537.186 2364.63
601.979 535.934 2359.12
582.112 537.01 2363.86
558.745 534.817 2354.2
539.635 536.687 2362.43
518.676 536.794 2362.9
497.07 536.213 2360.35
476.826 537.114 2364.32
454.08 535.151 2355.67
433.041 535.106 2355.47
413.993 537.643 2366.64
392.647 537.306 2365.16
368.725 533.207 2347.12
348.811 534.76 2353.95
327.812 534.741 2353.87
306.918 534.902 2354.58
285.285 533.705 2349.31
264.162 533.347 2347.73
243.45 533.83 2349.86
222.501 533.834 2349.88
200.702 531.59 2340
180.71 534.164 2351.33
158.918 531.395 2339.14
138.252 532.123 2342.34
117.227 531.483 2339.53
96.8064 533.902 2350.17
75.8133 533.625 2348.96
54.7011 531.979 2341.71
33.7719 531.178 2338.19
12.9531 532.331 2343.26
-7.9457 532.779 2345.23
-28.9015 533.63 2348.98
-49.7961 533.111 2346.69
-70.5272 531.666 2340.33
-91.5567 532.617 2344.52
-112.746 533.97 2350.48
-133.421 532.849 2345.54
-154.126 532.131 2342.38
-175.197 532.699 2344.88
-196.054 532.564 2344.29
-216.974 532.611 2344.49
-237.979 532.838 2345.49
-259.303 533.687 2349.23
-278.939 531.193 2338.25
-300.717 532.843 2345.51
-321.539 532.693 2344.85
-343.17 533.82 2349.81
-362.77 531.839 2341.1
-383.61 531.794 2340.9
-404.252 531.493 2339.57
-426.061 532.681 2344.8
-447.747 533.61 2348.89
-467.559 532.324 2343.23
-488.038 531.873 2341.25
-509.069 532.037 2341.97
-532.446 534.544 2353
-549.489 530.742 2336.27
-575.242 535.324 2356.43
-591.712 531.248 2338.49
-615.513 533.807 2349.76
-635.373 532.893 2345.73
-651.964 529.383 2330.28
-673.676 530.119 2333.52
-697.068 532.094 2342.22
-721.13 534.45 2352.59
-740.609 533.373 2347.84
-760.567 532.69 2344.84
-781.355 532.609 2344.48
-804.619 534.177 2351.38
-819.522 530.255 2334.12
-841.718 531.129 2337.97
-864.262 532.175 2342.57
-889.247 534.639 2353.42
-911.172 535.193 2355.86
-927.681 532.612 2344.5
-948.732 532.695 2344.86
-970.481 533.158 2346.9
-989.159 531.95 2341.58
-1011.58 532.762 2345.16
-1035.97 534.558 2353.06
-1044.77 528.4 2325.95
-1073.92 532.569 2344.3
-1095.4 532.852 2345.55
-1117.27 533.307 2347.56
-1131.41 530.127 2333.56
-1161.78 534.526 2352.92
-1178.28 532.504 2344.02
-1198.17 532.055 2342.04
-1230.19 536.917 2363.45
-1244.1 533.846 2349.93
-1261.02 532.144 2342.44
-1302.73 540.789 2380.49
-1299.14 530.652 2335.87
-1329.62 534.534 2352.96
1194.24 525.622 2408.24
1179.77 528.759 2422.62
1147.68 523.97 2400.67
1126.69 524.161 2401.55
1101.12 522.188 2392.51
1077.23 520.954 2386.85
1052.98 519.489 2380.14
1043.21 525.251 2406.54
1009.6 519.006 2377.93
985.035 517.238 2369.83
967.184 518.997 2377.89
944.083 517.955 2373.11
923.134 518.072 2373.65
905.257 519.96 2382.3
884.124 520.023 2382.59
857.933 517.041 2368.92
835.17 516.026 2364.28
817.534 518.209 2374.28
795.951 517.94 2373.04
775.86 518.653 2376.31
753.891 518.115 2373.85
728.161 514.887 2359.06
709.656 516.727 2367.49
686.047 514.851 2358.89
667.582 516.838 2368
646.089 516.534 2366.6
623.579 515.368 2361.26
603.294 516.025 2364.27
578.242 512.504 2348.14
562.008 516.828 2367.95
537.777 513.848 2354.3
517.937 514.992 2359.54
497.369 515.478 2361.76
475.955 515.092 2360
454.725 514.879 2359.02
433.305 514.418 2356.91
412.565 514.76 2358.48
390.329 513.172 2351.2
368.8 512.385 2347.6
350.461 516.203 2365.09
328.691 515.132 2360.18
306.1 512.54 2348.3
285.582 513.293 2351.75
265.312 514.646 2357.95
242.396 510.659 2339.68
222.734 513.421 2352.34
201.664 513.175 2351.21
180.826 513.528 2352.83
159.549 512.566 2348.43
138.513 512.204 2346.76
117.79 513.08 2350.78
96.6275 512 2345.83
75.8622 513.013 2350.47
54.8047 512.068 2346.14
34.0052 513.856 2354.34
12.9992 513.26 2351.6
-7.9442 511.772 2344.79
-28.848 511.738 2344.63
-49.8282 512.518 2348.2
-70.9255 513.685 2353.55
-91.4248 510.977 2341.14
-112.584 512.279 2347.11
-134.006 514.18 2355.82
-154.545 512.636 2348.74
-174.945 511.055 2341.5
-196.83 513.688 2353.57
-216.841 511.395 2343.06
-238.425 512.886 2349.89
-258.502 511.157 2341.97
-278.997 510.452 2338.74
-300.532 511.615 2344.07
-321.34 511.47 2343.4
-342.394 511.71 2344.5
-362.842 511.069 2341.57
-384.318 511.867 2345.22
-403.831 510.102 2337.13
-424.746 510.195 2337.56
-447.834 512.768 2349.35
-469.178 513.203 2351.34
-487.728 510.675 2339.76
-508.745 510.832 2340.48
-531.464 512.618 2348.66
-552.045 512.284 2347.13
-571.401 510.88 2340.7
-593.968 512.345 2347.41
-614.375 511.91 2345.42
-634.195 511.03 2341.39
-655.223 511.149 2341.93
-680.287 514.312 2356.42
-696.889 511.08 2341.61
-719.514 512.324 2347.31
-740.418 512.307 2347.24
-763.084 513.477 2352.6
-785.169 514.204 2355.93
-804.405 513.075 2350.76
-824.48 512.526 2348.24
-846.123 512.954 2350.2
-869.78 514.553 2357.53
-883.803 510.512 2339.01
-907.38 512.048 2346.05
-925.965 510.762 2340.16
-955.065 515.205 2360.51
-972.81 513.463 2352.53
-994.575 513.871 2354.4
-1014.76 513.462 2352.53
-1034.46 512.832 2349.64
-1056.08 513.154 2351.12
-1076.02 512.669 2348.9
-1097.95 513.13 2351.01
-1118.16 512.788 2349.44
-1134.44 510.687 2339.82
-1156.17 511.072 2341.58
-1174.35 509.897 2336.2
-1205.8 514.428 2356.95
-1229.32 515.481 2361.78
-1261.58 520.1 2382.94
-1270.34 515.038 2359.75
-1303.71 519.954 2382.27
-1313.45 515.442 2361.6
-1325.27 511.874 2345.25
1199.5 506.37 2418.84
1172.92 504.214 2408.55
1144.31 501.091 2393.63
1122.13 500.714 2391.83
1106.48 503.298 2404.17
1074.84 498.562 2381.55
1053.01 498.281 2380.21
1030.76 497.784 2377.83
1014.63 500.283 2389.77
994.491 500.872 2392.58
968.337 498.39 2380.73
944.49 497.011 2374.14
923.182 496.935 2373.78
901.13 496.446 2371.44
882.136 497.659 2377.23
856.316 494.985 2364.46
834.244 494.398 2361.66
817.596 497.078 2374.46
797.886 497.99 2378.81
772.274 495.167 2365.33
752.77 496.211 2370.32
730.247 495.268 2365.81
708.314 494.682 2363.01
691.312 497.609 2376.99
666.32 494.788 2363.52
645.124 494.694 2363.07
623.144 493.971 2359.62
605.3 496.591 2372.13
583.457 496.002 2369.32
560.492 494.378 2361.56
539.585 494.514 2362.21
516.32 492.412 2352.17
495.211 492.276 2351.52
474.855 492.908 2354.54
454.043 493.105 2355.48
433.716 493.873 2359.15
413.296 494.608 2362.66
390.382 492.275 2351.52
370.218 493.343 2356.62
350.513 495.19 2365.44
327.389 492.132 2350.83
305.637 490.86 2344.75
286.686 494.228 2360.85
264.586 492.272 2351.5
244.145 493.333 2356.57
222.583 492.115 2350.75
201.528 491.879 2349.62
180.629 492.014 2350.27
159.507 491.499 2347.81
138.072 489.719 2339.3
117.76 491.993 2350.17
96.8841 492.389 2352.06
75.7478 491.315 2346.93
54.996 492.865 2354.34
33.7704 489.462 2338.08
12.958 490.733 2344.15
-7.94543 490.943 2345.15
-28.8284 490.5 2343.04
-49.836 491.659 2348.57
-70.3767 488.889 2335.34
-91.4386 490.178 2341.5
-112.461 490.814 2344.54
-133.138 489.982 2340.56
-154.633 491.975 2350.08
-175.335 491.273 2346.73
-196.208 491.147 2346.12
-216.422 489.556 2338.52
-238.065 491.193 2346.35
-259.613 492.383 2352.03
-279.383 490.278 2341.98
-300.574 490.784 2344.39
-320.453 489.222 2336.93
-342.582 491.076 2345.79
-364.239 492.079 2350.58
-383.418 489.807 2339.73
-405.047 490.738 2344.17
-425.847 490.623 2343.62
-445.689 489.466 2338.09
-468.086 491.092 2345.87
-488.182 490.27 2341.94
-510.465 491.621 2348.39
-531.091 491.333 2347.01
-552.329 491.61 2348.34
-572.62 491.056 2345.69
-593.307 490.868 2344.79
-613.44 490.251 2341.85
-635.02 490.792 2344.43
-656.599 491.298 2346.85
-677.358 491.178 2346.28
-697.782 490.83 2344.61
-717.557 490.06 2340.93
-740.766 491.611 2348.34
-760.718 490.975 2345.3
-784.604 492.844 2354.23
-805.407 492.729 2353.69
-825.826 492.392 2352.07
-845.503 491.639 2348.48
-865.75 491.247 2346.6
-889.731 492.942 2354.7
-907.766 491.34 2347.05
-935.379 494.878 2363.95
-952.153 492.652 2353.32
-973.961 493.07 2355.31
-991.158 491.186 2346.31
-1010.88 490.607 2343.55
-1030.51 490.005 2340.67
-1054.07 491.257 2346.65
-1072.33 490.043 2340.85
-1091.29 489.185 2336.75
-1114.35 490.163 2341.43
-1130.56 488.149 2331.81
-1153.1 488.891 2335.35
-1170.77 487.58 2329.09
-1193.67 488.454 2333.26
-1216.58 489.297 2337.29
-1241.31 490.84 2344.66
-1250.71 486.365 2323.29
-1275.34 487.861 2330.43
-1312.43 494.003 2359.77
-1329.54 492.547 2352.81
1202.51 486.022 2424.92
1182.35 486.622 2427.92
1142.99 479.195 2390.86
1132.53 483.833 2414
1106.86 482.028 2404.99
1084.1 481.443 2402.08
1053.37 477.224 2381.02
1036.59 479.281 2391.29
1016.91 480.055 2395.15
999.384 481.899 2404.35
967.951 476.974 2379.78
950.289 478.765 2388.71
922.815 475.582 2372.83
904.614 477.14 2380.61
883.845 477.387 2381.84
859.324 475.569 2372.77
837.842 475.383 2371.84
820.483 477.588 2382.84
799.15 477.535 2382.58
775.942 476.33 2376.56
753.677 475.65 2373.17
732.29 475.502 2372.43
702.691 469.854 2344.25
688.594 474.543 2367.65
665.808 473.351 2361.7
645.664 474.021 2365.04
626.675 475.613 2372.99
602.901 473.558 2362.73
579.495 471.653 2353.23
560.065 472.962 2359.76
541.36 475.011 2369.98
517.186 472.231 2356.12
497.662 473.643 2363.16
476.044 473.098 2360.44
455.741 473.87 2364.29
432.857 471.902 2354.47
411.803 471.832 2354.12
392.013 473.279 2361.34
371.004 473.336 2361.63
349.965 473.359 2361.74
328.494 472.762 2358.76
307.052 472.13 2355.61
285.409 471.071 2350.33
264.825 471.733 2353.63
243.255 470.601 2347.98
222.878 471.78 2353.86
201.125 469.988 2344.92
180.493 470.705 2348.5
159.054 469.231 2341.15
138.14 469.093 2340.46
117.475 469.901 2344.49
96.6906 470.477 2347.36
75.9123 471.411 2352.02
54.7032 469.362 2341.8
33.8154 469.242 2341.2
13.0241 472.23 2356.11
-7.93944 469.679 2343.38
-28.7704 468.665 2338.32
-49.9442 471.741 2353.67
-70.7954 470.852 2349.23
-91.7136 470.713 2348.54
-112.517 470.145 2345.7
-133.26 469.542 2342.7
-153.744 468.315 2336.58
-175.641 471.17 2350.82
-196.877 471.832 2354.12
-217.431 470.891 2349.43
-238.677 471.481 2352.37
-258.234 468.909 2339.54
-280.448 471.186 2350.9
-300.22 469.329 2341.63
-322.071 470.752 2348.73
-343.029 470.775 2348.85
-363.963 470.764 2348.8
-384.391 470.137 2345.66
-405.404 470.252 2346.24
-427.098 471.107 2350.5
-449.384 472.505 2357.48
-466.957 469.043 2340.21
-488.604 469.796 2343.96
-507.57 468.014 2335.07
-530.68 470.043 2345.19
-553.474 471.648 2353.21
-573.337 470.731 2348.63
-592.842 469.595 2342.96
-612.709 468.812 2339.05
-633.494 468.76 2338.8
-656.083 470.005 2345.01
-676.007 469.321 2341.6
-698.91 470.686 2348.4
-720.439 471.073 2350.33
-743.134 472.178 2355.85
-762.233 471.001 2349.98
-783.673 471.294 2351.44
-808.586 473.606 2362.97
-824.843 470.86 2349.27
-848.819 472.547 2357.69
-866.413 470.685 2348.4
-888.324 471.202 2350.98
-908.804 470.952 2349.73
-929.21 470.677 2348.36
-952.859 472.02 2355.06
-976.556 473.328 2361.59
-991.494 470.426 2347.11
-1014.73 471.498 2352.45
-1037.98 472.537 2357.64
-1053.6 470.126 2345.61
-1078 471.65 2353.22
-1097.87 471.174 2350.84
-1128.22 475.128 2370.57
-1138.19 470.513 2347.54
-1166.5 473.51 2362.5
-1178.17 469.765 2343.81
-1209.7 473.928 2364.58
-1239.18 477.163 2380.72
-1268.83 480.352 2396.63
-1284.17 478.108 2385.44
-1299.77 476.032 2375.08
-1332.88 480.332 2396.53
-1330.36 471.859 2354.26
1202.4 464.357 2424.69
1169.3 459.843 2401.12
1158.17 463.958 2422.61
1114.43 454.923 2375.43
1106.35 460.372 2403.88
1084.82 460.33 2403.66
1052.47 455.606 2378.99
1042.77 460.69 2405.54
1012.98 456.928 2385.9
995.535 458.689 2395.09
965.647 454.671 2374.11
943.671 454.282 2372.08
920.603 453.337 2367.14
903.853 455.532 2378.61
882.762 455.592 2378.92
861.279 455.447 2378.16
837.79 454.208 2371.7
817.879 454.895 2375.28
791.603 451.984 2360.08
772.852 453.328 2367.1
749.772 452.136 2360.88
726.166 450.55 2352.59
707.734 452.175 2361.08
688.293 453.235 2366.61
663.914 451.008 2354.98
647.196 454.009 2370.66
627.162 454.809 2374.83
602.155 451.932 2359.81
582.533 453.034 2365.57
560.051 451.912 2359.7
540.477 453.14 2366.12
519.283 453.054 2365.67
497.251 452.199 2361.2
474.679 450.756 2353.67
455.366 452.417 2362.34
433.563 451.645 2358.31
411.8 450.839 2354.1
393.139 453.524 2368.12
370.242 451.351 2356.77
348.382 450.256 2351.06
326.598 449.124 2345.15
307.053 451.129 2355.62
284.935 449.369 2346.43
263.618 448.694 2342.9
243.762 450.603 2352.87
222.787 450.609 2352.9
201.713 450.394 2351.78
180.042 448.644 2342.64
159.654 450.048 2349.97
138.372 448.979 2344.39
117.673 449.752 2348.43
96.6106 449.177 2345.42
75.5964 448.567 2342.24
54.9788 450.742 2353.6
33.8724 449.123 2345.14
12.9646 449.161 2345.34
-7.95281 449.542 2347.33
-28.8913 449.7 2348.15
-49.8199 449.635 2347.81
-70.8849 450.476 2352.2
-91.6762 449.59 2347.58
-112.377 448.67 2342.78
-133.539 449.596 2347.61
-154.131 448.608 2342.45
-175.057 448.714 2343.01
-196.633 450.285 2351.21
-217.251 449.572 2347.49
-237.984 449.2 2345.55
-259.418 450.105 2350.27
-279.866 449.292 2346.03
-300.843 449.381 2346.49
-321.136 448.505 2341.91
-341.324 447.597 2337.17
-364.11 450.005 2349.75
-383.91 448.661 2342.73
-406.235 450.254 2351.05
-425.862 448.848 2343.7
-446.251 448.338 2341.04
-467.522 448.72 2343.04
-487.388 447.78 2338.13
-509.64 449.019 2344.6
-529.145 447.834 2338.41
-551.883 449.372 2346.44
-570.054 447.215 2335.18
-594.024 449.6 2347.63
-614.424 449.211 2345.6
-635.004 448.976 2344.37
-655.521 448.712 2343
-677.879 449.686 2348.08
-698.311 449.363 2346.39
-719.534 449.552 2347.38
-738.949 448.633 2342.58
-764.917 451.633 2358.25
-784.865 451.014 2355.02
-803.438 449.657 2347.93
-827.062 451.125 2355.59
-846.089 450.074 2350.11
-863.274 448.118 2339.89
-886.508 449.32 2346.17
-909.786 450.489 2352.27
-926.585 448.469 2341.73
-948.336 448.882 2343.88
-973.452 450.835 2354.08
-993.302 450.319 2351.39
-1013.06 449.781 2348.58
-1031.52 448.704 2342.95
-1052.67 448.814 2343.53
-1070.48 447.527 2336.81
-1096.06 449.473 2346.97
-1124.7 452.576 2363.17
-1129 445.954 2328.59
-1159.37 449.679 2348.04
-1183.75 450.994 2354.91
-1192.47 446.395 2330.9
-1226.27 451.186 2355.91
-1232.68 445.908 2328.36
-1269.97 451.788 2359.06
-1291.05 451.806 2359.15
-1291.46 444.704 2322.07
-1362.16 461.646 2410.53
1190.38 438.312 2400.44
1167.38 437.715 2397.17
1144.8 437.254 2394.65
1127.23 438.724 2402.7
1103.71 437.891 2398.14
1078.98 436.536 2390.72
1051.51 433.996 2376.81
1043.02 439.347 2406.11
1014.38 436.254 2389.17
990.098 434.947 2382.01
969.962 435.441 2384.72
949.364 435.746 2386.39
922.97 433.343 2373.23
903.381 434.098 2377.36
880.932 433.481 2373.99
859.155 433.173 2372.3
838.996 433.686 2375.11
815.854 432.643 2369.4
796.828 433.786 2375.66
774.9 433.368 2373.37
749.084 430.692 2358.71
728.982 431.24 2361.72
704.541 429.179 2350.43
686.844 431.225 2361.63
666.245 431.521 2363.25
644.279 430.922 2359.97
622.326 430.292 2356.52
604.286 432.417 2368.16
580.595 430.506 2357.7
560.453 431.182 2361.4
540.43 432.006 2365.91
518.394 431.223 2361.62
497.208 431.11 2361
475.415 430.438 2357.32
456.075 432.027 2366.02
432.638 429.701 2353.28
412.445 430.523 2357.79
392.789 432.026 2366.02
369.909 429.951 2354.65
348.211 429.083 2349.9
327.115 428.893 2348.86
306.905 429.918 2354.47
286.218 430.378 2356.99
264.258 428.843 2348.59
243.644 429.418 2351.73
222.865 429.782 2353.73
202.288 430.651 2358.49
180.934 429.876 2354.24
159.51 428.71 2347.86
138.595 428.764 2348.16
117.37 427.71 2342.38
96.7662 428.955 2349.2
75.5595 427.475 2341.09
54.8377 428.655 2347.56
33.8986 428.545 2346.95
12.9148 426.606 2336.34
-7.93564 427.688 2342.26
-28.8774 428.557 2347.02
-49.9211 429.573 2352.58
-70.7917 428.939 2349.11
-91.5167 427.914 2343.5
-112.369 427.753 2342.62
-133.642 428.995 2349.42
-154.895 429.844 2354.07
-175.558 429.048 2349.71
-196.538 429.115 2350.07
-216.873 427.897 2343.4
-238.265 428.793 2348.31
-259.831 429.834 2354.01
-279.379 427.63 2341.94
-300.82 428.428 2346.31
-317.5 422.783 2315.4
-342.005 427.611 2341.84
-362.424 427.068 2338.86
-383.718 427.559 2341.55
-403.688 426.601 2336.31
-425.12 427.206 2339.62
-448.42 429.544 2352.42
-467.285 427.613 2341.85
-488.544 427.946 2343.67
-509.381 427.896 2343.4
-531.044 428.518 2346.81
-550.473 427.358 2340.45
-572.324 428.093 2344.48
-595.409 429.668 2353.1
-612.109 426.685 2336.77
-634.416 427.677 2342.2
-654.911 427.424 2340.82
-676.978 428.181 2344.96
-698.786 428.734 2347.99
-719.154 428.397 2346.14
-740.629 428.719 2347.91
-764.212 430.211 2356.08
-783.828 429.449 2351.9
-803.326 428.664 2347.6
-822.051 427.517 2341.32
-846.3 429.228 2350.69
-866.21 428.709 2347.85
-888.461 429.346 2351.34
-907.512 428.443 2346.39
-930.422 429.361 2351.42
-948.917 428.246 2345.32
-971.785 429.111 2350.05
-989.296 427.623 2341.9
-1011.31 428.105 2344.54
-1030.53 427.407 2340.72
-1059.34 430.633 2358.39
-1069.86 426.446 2335.46
-1094.6 427.976 2343.84
-1117.28 428.66 2347.59
-1140.82 429.643 2352.96
-1158.26 428.334 2345.8
-1180.41 428.784 2348.26
-1198.05 427.605 2341.81
-1218.26 427.373 2340.54
-1243.49 428.875 2348.76
-1263.61 428.599 2347.25
-1299.78 433.683 2375.09
-1299.79 426.733 2337.03
-1336.63 431.904 2365.35
1204.59 421.887 2429.1
1172.74 418.252 2408.17
1161.59 422.001 2429.76
1125.3 416.589 2398.6
1099.75 415.016 2389.54
1073.86 413.253 2379.39
1056.47 414.751 2388.01
1048.7 420.17 2419.21
1012.23 414.076 2384.13
991.026 414.096 2384.24
968.273 413.458 2380.57
945.523 412.792 2376.73
924.21 412.738 2376.42
905.654 413.94 2383.34
882.129 412.875 2377.21
861.002 412.908 2377.4
837.191 411.622 2370
817.624 412.411 2374.54
794.169 411.228 2367.73
774.144 411.806 2371.05
753.122 411.87 2371.42
727.682 409.452 2357.5
708.372 410.443 2363.21
686.72 410.095 2361.2
666.395 410.543 2363.78
645.205 410.47 2363.36
625.49 411.362 2368.5
603.211 410.571 2363.95
583.326 411.412 2368.79
562.182 411.394 2368.68
539.027 409.845 2359.77
518.1 409.935 2360.28
496.317 409.325 2356.77
475.145 409.188 2355.98
456.007 410.87 2365.67
432.927 408.992 2354.85
414.76 411.801 2371.02
391.119 409.183 2355.96
369.242 408.22 2350.41
349.17 409.255 2356.37
328.017 409.077 2355.34
307.115 409.206 2356.09
285.465 408.287 2350.79
264.55 408.354 2351.18
244.93 410.605 2364.14
222.834 408.739 2353.4
201.84 408.715 2353.26
180.909 408.83 2353.92
160.022 409.085 2355.39
138.982 408.967 2354.71
117.747 408.134 2349.92
96.8339 408.295 2350.84
75.7711 407.741 2347.65
54.761 407.155 2344.28
33.8939 407.564 2346.63
12.9674 407.428 2345.85
-7.9245 406.234 2338.97
-28.8492 407.233 2344.72
-49.8516 408.029 2349.31
-70.4258 405.886 2336.97
-91.8497 408.5 2352.02
-112.494 407.321 2345.23
-133.623 407.991 2349.09
-154.292 407.263 2344.9
-174.946 406.676 2341.52
-196.51 408.104 2349.74
-217.205 407.625 2346.98
-238.131 407.627 2346.99
-258.173 406.236 2338.99
-280.271 408.047 2349.41
-301.025 407.787 2347.91
-320.926 406.479 2340.38
-343.234 408.192 2350.25
-362.668 406.488 2340.44
-383.337 406.279 2339.23
-405.803 407.897 2348.55
-422.935 404.258 2327.6
-446.504 406.824 2342.37
-466.434 405.994 2337.59
-487.456 406.144 2338.45
-511.178 408.439 2351.67
-530.083 406.856 2342.56
-552.858 408.252 2350.59
-570.819 406.119 2338.31
-596.031 409.115 2355.56
-616.742 408.922 2354.45
-635.586 407.545 2346.52
-658.772 408.951 2354.62
-676.575 407.032 2343.57
-697.245 406.901 2342.81
-720.458 408.218 2350.4
-738.405 406.561 2340.86
-765.281 409.776 2359.37
-784.918 409.048 2355.17
-806.034 409.108 2355.52
-821.874 406.554 2340.82
-842.778 406.571 2340.91
-869.097 409.135 2355.68
-891.059 409.576 2358.21
-910.513 408.87 2354.15
-931.666 408.942 2354.57
-953.141 409.149 2355.76
-967.409 406.32 2339.47
-987.905 406.171 2338.61
-1011.46 407.261 2344.88
-1033.06 407.535 2346.47
-1057.47 408.882 2354.22
-1078.22 408.794 2353.71
-1099.75 408.995 2354.87
-1115.72 407.16 2344.31
-1137.08 407.324 2345.25
-1155.33 406.388 2339.86
-1184.09 409.119 2355.58
-1204.47 408.907 2354.36
-1226.14 409.133 2355.67
-1240.83 407.062 2343.74
-1260.92 406.801 2342.24
-1291.36 409.836 2359.72
-1316.7 411.18 2367.45
-1341.6 412.345 2374.16
1194.59 396.907 2408.93
1176.73 398.133 2416.38
1154.45 397.878 2414.82
1134.65 398.485 2418.51
1100.67 394.042 2391.55
1072.74 391.628 2376.89
1049.77 390.965 2372.87
1040.17 395.358 2399.53
1019.68 395.709 2401.66
985.82 390.776 2371.72
971.732 393.635 2389.07
944.899 391.343 2375.17
925.751 392.203 2380.38
905.415 392.587 2382.72
882.583 391.882 2378.44
858.084 390.384 2369.34
836.641 390.235 2368.44
814.196 389.6 2364.58
797.105 391.56 2376.48
773.947 390.566 2370.45
750.54 389.388 2363.3
730.408 389.888 2366.33
707.059 388.651 2358.83
690.961 391.446 2375.79
669.983 391.565 2376.51
645.828 389.774 2365.64
625.594 390.31 2368.89
601.114 388.141 2355.73
582.01 389.411 2363.44
561.369 389.71 2365.26
541.758 390.777 2371.73
518.827 389.436 2363.59
498.236 389.814 2365.88
475.621 388.571 2358.34
457.213 390.809 2371.93
432.65 387.748 2353.35
412.97 388.975 2360.79
390.385 387.449 2351.53
369.771 387.819 2353.78
348.803 387.839 2353.9
327.265 387.186 2349.94
306.921 387.954 2354.6
285.164 386.919 2348.32
264.934 387.953 2354.59
243.251 386.858 2347.94
222.879 387.835 2353.87
202.218 388.461 2357.67
181.098 388.247 2356.37
160.055 388.165 2355.88
138.313 386.106 2343.38
117.87 387.588 2352.37
96.7321 386.929 2348.37
75.8186 387.052 2349.12
54.7262 386.008 2342.78
33.8296 385.908 2342.18
13.0082 387.73 2353.24
-7.96287 387.246 2350.3
-28.8794 386.732 2347.18
-49.8201 386.838 2347.82
-70.7371 386.752 2347.3
-91.3683 385.499 2339.69
-112.659 386.978 2348.67
-134.323 389.074 2361.4
-154.323 386.435 2345.37
-175.201 386.362 2344.93
-196.221 386.584 2346.28
-218.43 388.882 2360.23
-238.178 386.778 2347.46
-258.656 386.103 2343.36
-279.741 386.369 2344.98
-300.707 386.444 2345.43
-322.193 387.135 2349.62
-341.303 385.059 2337.03
-364.397 387.46 2351.6
-384.045 386.135 2343.55
-404.533 385.746 2341.2
-424.419 384.851 2335.76
-445.658 385.208 2337.93
-467.673 386.175 2343.8
-487.538 385.359 2338.85
-508.96 385.79 2341.46
-532.567 387.78 2353.54
-551.82 386.567 2346.18
-573.718 387.228 2350.19
-594.19 386.914 2348.29
-612.836 385.473 2339.54
-635.682 386.682 2346.88
-657.276 387.076 2349.27
-677.494 386.661 2346.75
-697.342 386.066 2343.14
-720.559 387.316 2350.72
-739.988 386.517 2345.87
-764.471 388.329 2356.87
-785.645 388.409 2357.36
-803.258 386.769 2347.4
-826.552 387.879 2354.14
-846.889 387.581 2352.33
-865.092 386.344 2344.82
-884.172 385.548 2339.99
-912.393 388.682 2359.01
-928.125 386.475 2345.62
-950.269 386.976 2348.66
-974.293 388.205 2356.12
-990.68 386.403 2345.18
-1013.89 387.283 2350.52
-1034.74 387.241 2350.27
-1050.26 385.247 2338.16
-1072.54 385.763 2341.3
-1092.3 385.369 2338.91
-1122.59 388.636 2358.74
-1142.32 388.195 2356.06
-1159.76 387.007 2348.85
-1178.82 386.389 2345.1
-1194.16 384.596 2334.22
-1225.74 388.003 2354.89
-1247.35 388.196 2356.07
-1256.73 384.637 2334.46
-1282.38 386.092 2343.3
-1290.77 382.388 2320.82
-1341.65 391.19 2374.23
1198.13 376.543 2416.08
1178.07 377.016 2419.11
1164.73 379.701 2436.34
1127.96 374.7 2404.25
1096.56 371.328 2382.62
1077.65 372.133 2387.78
1058.21 372.782 2391.94
1037.85 373.131 2394.19
1007.74 369.912 2373.53
991.935 371.923 2386.43
968.797 371.209 2381.86
946.04 370.614 2378.03
920.419 368.843 2366.67
900.898 369.491 2370.83
878.16 368.819 2366.52
856.113 368.411 2363.9
839.658 370.45 2376.98
815.536 369.124 2368.47
795.904 369.814 2372.9
773.697 369.312 2369.68
755.086 370.547 2377.61
729.589 368.377 2363.68
711.374 369.863 2373.22
690.746 370.149 2375.05
664.946 367.592 2358.65
649.011 370.5 2377.3
625.653 369.224 2369.12
602.146 367.768 2359.77
580.412 367.328 2356.95
559.143 367.16 2355.88
538.074 367.117 2355.6
518.458 368.101 2361.91
498.698 369.062 2368.08
476.063 367.886 2360.53
456.893 369.403 2370.26
432.876 366.958 2354.58
413.359 368.273 2363.01
391.724 367.741 2359.6
369.968 367.028 2355.03
348.41 366.439 2351.25
328.939 368.109 2361.96
306.192 366.09 2349.01
285.795 366.791 2353.51
264.194 365.935 2348.01
244.096 367.195 2356.1
222.256 365.822 2347.29
202.329 367.642 2358.97
180.516 366.058 2348.8
159.675 366.288 2350.28
138.505 365.721 2346.64
117.787 366.355 2350.71
97.1108 367.424 2357.57
75.8923 366.464 2351.41
54.8947 366.244 2350
33.9196 365.997 2348.41
12.9772 365.874 2347.63
-7.97398 366.802 2353.58
-28.9075 366.161 2349.46
-49.7847 365.646 2346.16
-70.7464 365.872 2347.61
-91.8811 366.685 2352.83
-112.437 365.316 2344.04
-133.612 366.072 2348.89
-154.407 365.724 2346.66
-175.591 366.269 2350.16
-196.657 366.479 2351.5
-217.002 365.433 2344.79
-238.307 366.047 2348.73
-259.229 366.019 2348.56
-280.009 365.811 2347.22
-300.743 365.576 2345.71
-321.695 365.619 2345.99
-342.197 365.177 2343.15
-364.439 366.536 2351.87
-384.247 365.432 2344.79
-405.586 365.822 2347.29
-425.522 364.972 2341.83
-445.888 364.552 2339.14
-468.107 365.617 2345.98
-487.585 364.542 2339.07
-509.638 365.401 2344.59
-531.093 365.78 2347.02
-553.682 366.882 2354.09
-571.895 365.111 2342.72
-591.574 364.366 2337.95
-615.892 366.433 2351.21
-634.183 364.895 2341.34
-657.061 366.011 2348.5
-677.27 365.617 2345.97
-698.519 365.791 2347.09
-718.581 365.352 2344.27
-743.309 367.242 2356.4
-761.165 365.727 2346.68
-785.382 367.268 2356.57
-809.067 368.486 2364.38
-826.926 367.056 2355.21
-850.284 368.077 2361.76
-862.732 364.441 2338.43
-888.053 366.285 2350.26
-909.577 366.514 2351.73
-930.704 366.578 2352.14
-953.639 367.334 2356.99
-969.028 365.214 2343.38
-995.708 367.349 2357.08
-1013.52 366.192 2349.66
-1032.76 365.587 2345.78
-1051.07 364.684 2339.99
-1076.25 366.152 2349.41
-1100.26 367.172 2355.95
-1115.36 365.239 2343.55
-1142.32 367.189 2356.06
-1160.19 366.2 2349.72
-1191.26 369.338 2369.85
-1206.32 367.487 2357.97
-1238.98 370.972 2380.33
-1239.91 365 2342.01
-1269.37 367.482 2357.94
-1287.57 366.678 2352.78
-1300.82 364.513 2338.89
-1345.02 370.953 2380.21
1200.73 355.771 2421.31
1166.74 352.03 2395.86
1145.89 352.188 2396.93
1122.87 351.67 2393.4
1104.39 352.585 2399.63
1075.98 350.301 2384.09
1050.16 348.782 2373.75
1035.86 351.109 2389.58
1015.45 351.42 2391.7
988.492 349.428 2378.15
968.405 349.831 2380.89
944.192 348.729 2373.39
919.683 347.464 2364.78
904.755 349.844 2380.98
877.114 347.305 2363.7
857.452 347.878 2367.6
840.316 349.531 2378.85
811.986 346.492 2358.17
794.331 347.969 2368.21
771.24 347.079 2362.16
750.897 347.411 2364.42
726.965 346.054 2355.18
706.55 346.34 2357.13
688.27 347.722 2366.54
665.492 346.847 2360.58
647.984 348.752 2373.54
625.921 348.25 2370.13
603.628 347.582 2365.58
580.898 346.604 2358.93
559.614 346.448 2357.86
540.514 347.684 2366.28
519.324 347.622 2365.86
496.27 346.254 2356.55
478.038 348.279 2370.32
455.227 347 2361.62
432.535 345.692 2352.72
413.207 347.077 2362.14
390.121 345.284 2349.94
369.523 345.615 2352.2
347.41 344.484 2344.5
328.274 346.348 2357.18
307.485 346.604 2358.93
285.69 345.68 2352.64
263.321 343.861 2340.26
243.702 345.628 2352.29
222.08 344.622 2345.44
201.495 345.181 2349.24
180.677 345.425 2350.9
159.616 345.207 2349.42
138.921 345.833 2353.68
117.942 345.852 2353.81
96.7502 345.118 2348.81
75.8329 345.228 2349.56
54.8979 345.312 2350.13
33.9929 345.805 2353.49
12.9725 344.817 2346.77
-7.94763 344.675 2345.8
-28.97 345.96 2354.54
-49.7035 344.165 2342.33
-70.8397 345.396 2350.7
-91.6547 344.856 2347.03
-112.775 345.451 2351.08
-133.395 344.568 2345.07
-153.896 343.659 2338.88
-175.38 344.899 2347.32
-195.926 344.228 2342.75
-216.739 344.11 2341.95
-238.319 345.123 2348.85
-259.784 345.819 2353.59
-279.436 344.178 2342.42
-300.882 344.822 2346.8
-321.977 345.006 2348.05
-341.925 344.012 2341.29
-363.091 344.289 2343.17
-383.141 343.535 2338.04
-403.578 343.187 2335.67
-425.005 343.674 2338.99
-446.642 344.278 2343.09
-466.766 343.713 2339.25
-489.414 344.976 2347.85
-508.809 343.937 2340.77
-529.794 344.011 2341.28
-553.922 346.044 2355.11
-570.026 343.098 2335.07
-594.009 344.935 2347.57
-614.898 344.912 2347.41
-634.187 344.023 2341.36
-656.8 344.935 2347.57
-674.801 343.444 2337.42
-693.437 342.356 2330.01
-717.998 344.171 2342.37
-740.032 344.707 2346.01
-763.298 345.771 2353.26
-783.499 345.427 2350.92
-803.933 345.201 2349.38
-828.556 346.74 2359.85
-844.569 344.688 2345.89
-866.138 344.948 2347.66
-888.031 345.322 2350.2
-911.696 346.352 2357.21
-924.115 343.159 2335.48
-946.92 343.879 2340.38
-972.017 345.383 2350.61
-991.429 344.845 2346.95
-1008.77 343.623 2338.64
-1034.71 345.321 2350.2
-1055.89 345.396 2350.7
-1071.24 343.597 2338.46
-1093.48 344.036 2341.45
-1119.55 345.637 2352.35
-1137.92 344.85 2346.99
-1153.53 343.268 2336.22
-1180.94 345.193 2349.32
-1196.75 343.715 2339.26
-1218.3 343.911 2340.6
-1238.88 343.831 2340.06
-1252.34 341.811 2326.31
-1285.07 345.031 2348.22
-1321.42 349.103 2375.93
-1342.47 349.068 2375.69
1193.99 332.309 2407.74
1166.18 330.511 2394.71
1150.48 332.143 2406.53
1129.92 332.405 2408.43
1107.19 332.029 2405.71
1081.59 330.759 2396.51
1057.68 329.964 2390.75
1045.63 332.914 2412.12
1009.93 328.303 2378.71
988.783 328.322 2378.85
970.19 329.21 2385.28
947.41 328.685 2381.48
926.432 328.775 2382.13
902.572 327.823 2375.23
883.942 328.771 2382.1
859.074 327.387 2372.08
836.955 327.008 2369.33
817.089 327.513 2372.99
797.43 328.129 2377.45
772.726 326.647 2366.71
751.148 326.44 2365.21
727.794 325.426 2357.87
708.213 326.09 2362.68
685.74 325.422 2357.84
669.489 327.757 2374.76
646.648 326.914 2368.65
625.385 326.839 2368.1
604.825 327.138 2370.27
585.136 327.948 2376.14
563.936 327.939 2376.07
540.492 326.574 2366.18
517.392 325.314 2357.05
496.25 325.231 2356.45
473.908 324.319 2349.85
452.398 323.919 2346.95
432.161 324.435 2350.69
414.56 327.084 2369.88
391.081 325.131 2355.73
370.127 325.174 2356.04
349.141 325.193 2356.18
327.582 324.646 2352.21
306.709 324.751 2352.98
286.04 325.103 2355.53
263.756 323.529 2344.13
243.389 324.24 2349.27
222.448 324.246 2349.32
201.66 324.5 2351.16
180.218 323.639 2344.92
159.747 324.525 2351.34
138.684 324.295 2349.68
117.593 323.904 2346.84
96.5851 323.623 2344.8
75.7994 324.137 2348.53
54.9199 324.489 2351.08
33.9351 324.269 2349.49
12.9886 324.298 2349.69
-7.93404 323.207 2341.79
-28.8232 323.321 2342.62
-49.8074 323.957 2347.23
-70.4206 322.518 2336.8
-91.5368 323.514 2344.01
-112.156 322.708 2338.17
-133.335 323.516 2344.03
-154.542 324.161 2348.7
-175.597 324.372 2350.23
-196.581 324.421 2350.59
-217.372 324.173 2348.79
-237.413 322.949 2339.92
-259.343 324.284 2349.59
-279.31 323.148 2341.36
-300.243 323.21 2341.81
-321.698 323.79 2346.01
-343.344 324.479 2351.01
-362.319 322.71 2338.19
-383.446 322.946 2339.9
-403.729 322.484 2336.55
-425.341 323.075 2340.84
-445.509 322.567 2337.15
-467.713 323.512 2344
-488.988 323.761 2345.8
-509.205 323.318 2342.59
-528.017 322.053 2333.43
-552.534 324.232 2349.21
-571.167 322.924 2339.74
-592.274 323.059 2340.71
-614.862 323.964 2347.27
-636.997 324.579 2351.73
-655.156 323.194 2341.69
-678.878 324.553 2351.54
-699.322 324.311 2349.79
-720.561 324.441 2350.73
-741.17 324.288 2349.62
-765.69 325.807 2360.63
-784.066 324.702 2352.62
-800.658 322.933 2339.81
-824.55 324.125 2348.44
-842.479 322.971 2340.08
-862.971 322.832 2339.07
-889.001 324.723 2352.77
-909.109 324.412 2350.52
-930.587 324.594 2351.84
-952.029 324.756 2353.01
-970.022 323.759 2345.79
-994.41 324.894 2354.01
-1014.15 324.495 2351.12
-1034.19 324.205 2349.02
-1054.14 323.9 2346.81
-1071.93 322.957 2339.98
-1095.45 323.74 2345.65
-1110.88 322.151 2334.14
-1135.61 323.267 2342.22
-1159.96 324.236 2349.25
-1179.45 323.836 2346.35
-1194.77 322.325 2335.4
-1230.04 326.155 2363.15
-1260.52 328.611 2380.94
-1278.02 327.655 2374.02
-1292.03 325.849 2360.93
-1321.72 327.993 2376.47
-1340.81 327.482 2372.76
1205.27 313.778 2430.48
1171.2 310.491 2405.02
1158.44 312.835 2423.17
1122.57 308.909 2392.77
1099.96 308.552 2390
1073.66 307.123 2378.93
1058.71 308.952 2393.09
1039.94 309.716 2399.02
1011.72 307.636 2382.91
989.773 307.42 2381.23
962.937 305.641 2367.45
949.471 308.121 2386.66
926.657 307.611 2382.71
906.671 308.038 2386.02
880.709 306.407 2373.39
860.303 306.676 2375.47
837.828 306.203 2371.8
819.885 307.404 2381.11
794.167 305.676 2367.72
773.545 305.869 2369.22
750.747 305.188 2363.95
731.5 305.954 2369.87
712.395 306.825 2376.63
692.024 307.189 2379.44
671.831 307.657 2383.07
643.956 304.523 2358.79
625.817 305.936 2369.74
603.037 305.101 2363.27
583.648 305.982 2370.09
561.125 305.225 2364.23
541.978 306.317 2372.69
518.608 305.014 2362.6
495.58 303.81 2353.27
478.561 306.347 2372.92
454.787 304.594 2359.34
436.417 306.466 2373.84
411.442 303.653 2352.05
393.151 305.737 2368.2
371.011 304.895 2361.67
349.686 304.661 2359.86
327.137 303.261 2349.02
308.601 305.646 2367.49
285.533 303.563 2351.35
264.837 303.87 2353.73
243.467 303.391 2350.02
223.174 304.29 2356.98
202.148 304.273 2356.86
180.579 303.34 2349.63
160.202 304.426 2358.04
138.612 303.189 2348.46
117.929 303.845 2353.54
96.8204 303.455 2350.52
75.888 303.552 2351.27
54.8221 302.986 2346.89
33.9748 303.677 2352.24
13.0038 303.703 2352.44
-7.97693 303.962 2354.45
-28.918 303.429 2350.32
-49.9078 303.64 2351.96
-70.742 303.06 2347.46
-91.7212 303.224 2348.73
-112.714 303.365 2349.82
-133.716 303.481 2350.72
-154.722 303.574 2351.44
-175.58 303.388 2350
-197.058 304.2 2356.29
-217.899 303.966 2354.48
-237.989 302.819 2345.59
-259.317 303.304 2349.35
-280.925 304.02 2354.9
-302.229 304.33 2357.3
-322.068 303.221 2348.71
-343.165 303.359 2349.78
-363.797 303.094 2347.72
-383.723 302.302 2341.59
-404.358 302.121 2340.18
-426.887 303.303 2349.35
-446.941 302.699 2344.66
-469.21 303.582 2351.5
-490.549 303.813 2353.29
-512.725 304.522 2358.79
-531.671 303.333 2349.57
-553.602 303.873 2353.75
-572.269 302.646 2344.26
-594.873 303.515 2350.99
-615.285 303.244 2348.89
-635.877 303.078 2347.6
-656.938 303.138 2348.06
-678.787 303.546 2351.23
-698.376 302.95 2346.61
-721.915 304.052 2355.15
-741.961 303.663 2352.13
-763.44 303.865 2353.69
-786.777 304.776 2360.75
-806.319 304.208 2356.35
-829.357 304.954 2362.13
-844.363 302.783 2345.31
-869.016 304.093 2355.46
-889.212 303.818 2353.33
-908.604 303.287 2349.22
-932.627 304.291 2356.99
-951.872 303.726 2352.62
-974.029 304.095 2355.48
-992.696 303.382 2349.95
-1016.33 304.186 2356.18
-1035.21 303.56 2351.33
-1053.14 302.688 2344.57
-1073.39 302.504 2343.15
-1098.6 303.699 2352.41
-1118.35 303.365 2349.82
-1136.69 302.672 2344.45
-1159.3 303.117 2347.9
-1172.97 301.252 2333.46
-1201.76 303.268 2349.07
-1216.49 301.727 2337.14
-1254.24 305.851 2369.08
-1254.7 300.894 2330.69
-1303.69 307.551 2382.24
-1306.97 303.381 2349.94
-1326.36 303.025 2347.19
1208.1 292.794 2436.18
1181.82 291.668 2426.82
1146.18 288.149 2397.53
1122.74 287.618 2393.12
1097.63 286.635 2384.94
1080.36 287.698 2393.79
1053.25 286.131 2380.75
1046.04 290.018 2413.09
1011.88 286.437 2383.29
990.699 286.457 2383.46
972.081 287.235 2389.93
952.942 287.89 2395.38
919.255 284.08 2363.68
901.539 285.142 2372.52
878.447 284.514 2367.29
857.415 284.538 2367.5
835.004 284.095 2363.81
816.16 284.874 2370.29
796.846 285.526 2375.71
774.311 285.028 2371.57
752.397 284.736 2369.14
729.888 284.197 2364.65
712.255 285.58 2376.16
690.504 285.346 2374.22
669.01 285.207 2373.06
644.613 283.781 2361.19
623.668 283.83 2361.6
603.658 284.322 2365.7
582.351 284.217 2364.82
561.936 284.557 2367.65
539.224 283.714 2360.63
518.724 284.013 2363.12
497.737 284.06 2363.51
476.316 283.852 2361.78
456.771 284.795 2369.63
434.186 283.842 2361.7
413.248 283.924 2362.38
392.432 284.102 2363.86
369.559 282.727 2352.42
349.333 283.334 2357.47
328.447 283.449 2358.43
307.008 283.069 2355.27
285.961 283.022 2354.88
264.457 282.479 2350.36
243.219 282.151 2347.63
223.041 283.107 2355.59
202.198 283.33 2357.44
180.624 282.461 2350.21
160.175 283.354 2357.64
139.056 283.154 2355.97
117.908 282.813 2353.13
96.4768 281.495 2342.17
75.6508 281.705 2343.92
54.7661 281.774 2344.49
33.9834 282.775 2352.82
12.9742 282.084 2347.07
-7.96212 282.445 2350.07
-29.0107 283.38 2357.85
-50.1098 283.815 2361.48
-70.7296 282.081 2347.05
-91.9377 282.95 2354.28
-112.98 283.08 2355.36
-133.129 281.282 2340.4
-154.239 281.726 2344.1
-175.475 282.267 2348.6
-196.362 282.191 2347.96
-217.22 282.093 2347.15
-238.848 282.924 2354.06
-258.944 281.952 2345.97
-280.522 282.619 2351.52
-301.165 282.316 2349
-322.414 282.584 2351.23
-343.676 282.83 2353.28
-364.034 282.346 2349.25
-385.578 282.785 2352.91
-404.111 281.085 2338.76
-427.695 282.891 2353.79
-448.158 282.561 2351.05
-468.15 281.978 2346.19
-490.456 282.778 2352.85
-510.94 282.505 2350.58
-530.033 281.515 2342.34
-550.766 281.438 2341.69
-572.39 281.805 2344.75
-594.024 282.151 2347.63
-614.909 282.13 2347.45
-635.487 281.974 2346.16
-657.338 282.375 2349.49
-676.994 281.837 2345.02
-698.796 282.198 2348.02
-720.891 282.653 2351.81
-742.7 282.973 2354.47
-760.825 281.911 2345.63
-784.097 282.762 2352.71
-804.859 282.686 2352.08
-824.571 282.255 2348.5
-847.539 282.933 2354.13
-864.352 281.572 2342.82
-889.012 282.772 2352.8
-910.188 282.834 2353.31
-929.855 282.434 2349.99
-949.787 282.132 2347.47
-973.043 282.808 2353.09
-990.139 281.703 2343.9
-1012.55 282.124 2347.41
-1032.15 281.762 2344.4
-1058.98 283.349 2357.6
-1078.92 283.063 2355.22
-1102.12 283.63 2359.93
-1109.95 280.294 2332.18
-1138.14 282.127 2347.43
-1166.48 283.933 2362.46
-1182.48 282.722 2352.38
-1198.28 281.506 2342.26
-1225.35 282.935 2354.15
-1239.03 281.276 2340.35
-1261.42 281.616 2343.18
-1283.79 281.94 2345.87
-1312.9 283.711 2360.61
-1345.08 286.08 2380.32
1199.81 269.212 2419.46
1182.8 270.254 2428.82
1164.3 270.99 2435.43
1139.31 270.213 2428.45
1108.54 268.008 2408.64
1088.65 268.398 2412.14
1059.38 266.447 2394.61
1051.69 269.953 2426.12
1019.36 267.149 2400.92
990.034 265.028 2381.86
972.933 266.16 2392.02
947.163 264.917 2380.86
929.804 266.024 2390.8
903.756 264.638 2378.35
884.079 265.096 2382.47
857.849 263.564 2368.7
839.405 264.406 2376.27
819.818 264.923 2380.91
793.149 263.118 2364.69
774.099 263.811 2370.92
753.696 264.069 2373.23
731.741 263.782 2370.65
710.352 263.688 2369.81
689.765 263.895 2371.67
667.753 263.553 2368.6
647.581 263.939 2372.07
624.263 263.025 2363.85
603.252 263.053 2364.11
582.672 263.279 2366.13
560.871 262.948 2363.16
540.632 263.353 2366.8
521.147 264.172 2374.16
498.427 263.352 2366.79
476.389 262.835 2362.15
456.655 263.601 2369.03
433.356 262.283 2357.19
413.143 262.794 2361.78
392.495 263.069 2364.25
370.235 262.232 2356.73
349.682 262.577 2359.83
327.405 261.588 2350.94
307.444 262.442 2358.61
286.129 262.18 2356.25
264.835 261.897 2353.71
243.464 261.483 2350
222.986 262.04 2355
202.318 262.467 2358.84
180.274 260.999 2345.65
159.663 261.496 2350.11
138.963 261.973 2354.4
117.382 260.663 2342.62
97.2294 262.646 2360.44
75.6636 260.851 2344.32
54.7523 260.805 2343.9
33.9031 261.18 2347.27
12.9874 261.424 2349.46
-7.96686 261.648 2351.47
-28.8691 261.077 2346.34
-49.9078 261.702 2351.96
-70.9513 261.974 2354.41
-91.9149 261.894 2353.69
-112.666 261.352 2348.82
-133.547 261.232 2347.74
-154.787 261.754 2352.43
-176.171 262.364 2357.92
-196.56 261.521 2350.34
-218.172 262.311 2357.44
-238.587 261.649 2351.49
-259.422 261.518 2350.31
-279.744 260.927 2345
-301.214 261.415 2349.39
-321.656 261.006 2345.71
-342.582 261.015 2345.79
-362.57 260.349 2339.8
-385.157 261.521 2350.34
-404.173 260.272 2339.11
-426.695 261.293 2348.29
-446.551 260.662 2342.62
-468.025 260.99 2345.56
-488.907 260.973 2345.41
-509.748 260.938 2345.09
-528.572 259.913 2335.88
-552.436 261.35 2348.8
-573.177 261.258 2347.97
-594.106 261.256 2347.95
-614.488 261.021 2345.85
-637.911 262.052 2355.1
-656.62 261.141 2346.92
-681.492 262.663 2360.6
-694.629 259.705 2334.02
-722.437 262.246 2356.85
-743.09 262.119 2355.71
-762.448 261.554 2350.64
-784.503 261.921 2353.93
-806.882 262.373 2357.99
-827.296 262.18 2356.26
-844.935 261.139 2346.9
-870.292 262.476 2358.92
-891.212 262.443 2358.62
-911.355 262.188 2356.33
-933.603 262.536 2359.46
-955.47 262.765 2361.51
-972.37 261.647 2351.47
-990.997 261.031 2345.93
-1018.94 262.843 2362.22
-1035.44 261.691 2351.86
-1051.32 260.431 2340.54
-1072.78 260.574 2341.83
-1106.41 263.612 2369.13
-1115.15 260.716 2343.1
-1139.51 261.513 2350.27
-1159.95 261.398 2349.23
-1175.4 260.181 2338.3
-1208.77 262.904 2362.76
-1234.15 263.826 2371.05
-1244.21 261.499 2350.14
-1273.27 263.174 2365.19
-1311.55 266.67 2396.61
-1326.98 265.482 2385.93
-1364.73 268.726 2415.09
1183.9 244.358 2387.39
1177.59 247.506 2418.14
1148.45 245.881 2402.27
1122.01 244.786 2391.57
1099 244.411 2387.9
1080.08 244.949 2393.16
1055.79 244.265 2386.48
1045.4 246.836 2411.6
1010.45 243.595 2379.93
994.269 244.835 2392.05
971.845 244.559 2389.35
946.463 243.509 2379.1
922.988 242.914 2373.28
904.855 243.729 2381.24
884.812 244.057 2384.44
861.615 243.509 2379.09
837.457 242.655 2370.75
815.972 242.552 2369.74
793.504 242.143 2365.75
772.287 242.104 2365.37
754.04 243.02 2374.32
731.49 242.562 2369.84
709.538 242.281 2367.1
685.918 241.396 2358.45
665.366 241.569 2360.13
646.577 242.413 2368.39
