# .PCD v0.7 - Point Cloud Data file format
VERSION 0.7
FIELDS x y z
SIZE 4 4 4
TYPE F F F
COUNT 1 1 1
WIDTH 1929
HEIGHT 1
VIEWPOINT 0 0 0 1 0 0 0
POINTS 1929
DATA ascii
-573.479 135.725 2349.21
-592.209 135.219 2340.45
-615.303 135.71 2348.96
-634.319 135.299 2341.84
-655.055 135.269 2341.33
-679.06 135.896 2352.17
-699.778 135.847 2351.32
-721.604 136.009 2354.13
-741.024 135.722 2349.16
-763.703 136.031 2354.51
-783.26 135.782 2350.2
-805.605 136.017 2354.26
-824.325 135.643 2347.8
-848.301 136.131 2356.25
-866.826 135.743 2349.52
-884.838 135.294 2341.75
-913.121 136.4 2360.9
-924.376 134.97 2336.14
-950.925 135.787 2350.28
-971.91 135.791 2350.35
-991.284 135.574 2346.61
-1012.13 135.564 2346.42
-1036.13 135.968 2353.42
-1050.35 135.099 2338.38
-1071.78 135.172 2339.65
-1094.86 135.447 2344.4
-1125.25 136.598 2364.33
-1140.61 135.917 2352.54
-1151.33 134.717 2331.76
-1180.52 135.683 2348.48
-1195.34 134.991 2336.52
-1222.84 135.731 2349.33
-1239.24 135.236 2340.75
-1267.77 136.058 2354.98
-1278.22 134.944 2335.7
-1302.42 135.295 2341.77
-1324.68 135.436 2344.21
1212.15 119.427 2444.34
1174.43 117.83 2411.65
1154.8 118.021 2415.56
1130.8 117.765 2410.32
1121.86 119.098 2437.59
1092.32 118.252 2420.29
1067.83 117.931 2413.71
1042.59 117.511 2405.11
1015.07 116.812 2390.81
1004.97 118.13 2417.79
970.688 116.602 2386.51
953.448 117.098 2396.65
926.219 116.361 2381.58
903.428 116.161 2377.49
885.86 116.639 2387.27
865.705 116.791 2390.38
840.124 116.201 2378.3
818.261 116.107 2376.39
792.884 115.497 2363.9
781.919 117.01 2394.87
757.102 116.477 2383.96
732.118 115.887 2371.88
711.587 115.987 2373.93
689.581 115.846 2371.04
669.746 116.072 2375.67
648.474 116.056 2375.34
627.42 116.079 2375.81
605.328 115.905 2372.24
585.883 116.243 2379.17
561.898 115.672 2367.49
542.521 116.043 2375.06
520.408 115.834 2370.79
496.479 115.186 2357.54
478.666 115.963 2373.44
454.497 115.201 2357.83
434.357 115.435 2362.63
413.587 115.518 2364.32
392.596 115.544 2364.85
371.877 115.657 2367.18
349.48 115.232 2358.46
328.864 115.376 2361.42
308.173 115.512 2364.2
286.206 115.155 2356.9
265.688 115.37 2361.3
244.353 115.237 2358.58
223.143 115.144 2356.66
201.866 114.992 2353.56
181.548 115.415 2362.22
159.98 115.051 2354.77
139.063 115.116 2356.09
117.514 114.587 2345.26
97.1365 115.218 2358.19
75.9428 114.963 2352.97
54.9777 114.992 2353.55
34.0717 115.255 2358.94
13.0354 115.216 2358.15
-7.9591 114.778 2349.18
-28.902 114.77 2349.02
-49.9652 115.046 2354.66
-70.9729 115.068 2355.12
-91.9815 115.082 2355.4
-113.13 115.232 2358.48
-134.095 115.179 2357.38
-154.766 114.921 2352.11
-175.554 114.801 2349.66
-197.031 115.11 2355.97
-217.131 114.632 2346.19
-239.661 115.408 2362.07
-260.149 115.155 2356.89
-279.46 114.457 2342.62
-301.037 114.721 2348
-322.819 115.023 2354.19
-342.519 114.591 2345.35
-363.26 114.538 2344.26
-384.922 114.765 2348.9
-406.294 114.886 2351.39
-427.321 114.903 2351.73
-449.442 115.198 2357.78
-470.85 115.293 2359.72
-491.441 115.188 2357.57
-511.533 114.979 2353.3
-529.309 114.287 2339.14
-552.524 114.778 2349.17
-577.288 115.542 2364.82
-595.903 115.065 2355.05
-615.576 114.818 2350
-635.644 114.659 2346.74
-662.071 115.62 2366.41
-679.911 115.068 2355.12
-701.792 115.213 2358.09
-723.088 115.257 2358.97
-742.546 115.013 2353.98
-764.03 115.088 2355.52
-782.646 114.738 2348.36
-806.594 115.168 2357.15
-825.997 114.943 2352.56
-847.642 115.034 2354.42
-865.805 114.659 2346.75
-891.208 115.239 2358.61
-907.011 114.579 2345.1
-935.047 115.459 2363.11
-950.938 114.833 2350.31
-974.594 115.153 2356.84
-995.57 115.148 2356.76
-1013.32 114.779 2349.2
-1036.54 115.031 2354.35
-1059.36 115.23 2358.44
-1077.61 114.934 2352.37
-1099.52 115.031 2354.37
-1126.11 115.607 2366.14
-1131.03 113.976 2332.77
-1160.17 114.802 2349.67
-1189.5 115.616 2366.33
-1206.26 115.202 2357.85
-1231.14 115.564 2365.27
-1248.58 115.228 2358.39
-1276.29 115.834 2370.8
-1302.19 116.259 2379.5
-1301.44 114.329 2340
-1338.42 115.724 2368.53
1219.63 98.2373 2459.44
1192.31 97.7946 2448.36
1158.62 96.8036 2423.55
1130.32 96.2341 2409.29
1109.7 96.3083 2411.15
1084.05 95.9412 2401.96
1064.14 96.0774 2405.37
1042.93 96.0993 2405.92
1017.36 95.7117 2396.21
997.638 95.8691 2400.15
975.159 95.7631 2397.5
955.989 95.9846 2403.04
931.608 95.6809 2395.44
906.225 95.2578 2384.85
886.516 95.425 2389.03
861.924 95.062 2379.95
845.079 95.5566 2392.33
819.201 95.029 2379.12
798.567 95.0979 2380.84
783.749 95.8819 2400.47
756.768 95.1803 2382.91
735.919 95.2316 2384.19
713.853 95.1238 2381.49
690.669 94.8559 2374.78
672.702 95.3101 2386.16
647.397 94.7204 2371.39
629.438 95.202 2383.45
607.282 95.0603 2379.9
585.384 94.9501 2377.14
563.493 94.8327 2374.2
543.17 94.9805 2377.9
521.889 94.966 2377.54
499.549 94.7494 2372.12
477.86 94.6424 2369.44
457.129 94.7241 2371.49
433.8 94.2495 2359.6
413.746 94.4741 2365.23
391.765 94.2592 2359.85
372.175 94.6279 2369.08
350.494 94.4773 2365.31
328.854 94.3191 2361.35
309.067 94.7074 2371.07
286.559 94.2572 2359.8
265.792 94.3541 2362.22
244.449 94.2453 2359.5
224.078 94.5264 2366.54
202.713 94.4029 2363.44
181.466 94.3116 2361.16
160.788 94.5314 2366.66
139.177 94.1862 2358.02
118.01 94.0724 2355.17
96.8459 93.9112 2351.13
75.9406 93.9817 2352.9
55.1628 94.3242 2361.47
34.114 94.34 2361.87
13.0295 94.1489 2357.08
-7.98933 94.1897 2358.11
-28.9503 93.9836 2352.95
-49.9849 94.0892 2355.59
-71.031 94.1475 2357.05
-92.0957 94.1984 2358.32
-113.414 94.441 2364.4
-133.921 94.0384 2354.32
-154.827 93.9873 2353.04
-176.218 94.2074 2358.55
-197.025 94.1017 2355.9
-217.216 93.7503 2347.11
-239.553 94.3055 2361.01
-260.141 94.1382 2356.82
-280.989 94.0829 2355.43
-301.027 93.783 2347.92
-322.809 94.0301 2354.11
-343.951 94.0719 2355.16
-366.001 94.3432 2361.95
-385.393 93.937 2351.78
-407.811 94.2722 2360.17
-427.127 93.8925 2350.67
-449.8 94.2519 2359.66
-470.638 94.2118 2358.66
-490.607 94.0086 2353.57
-511.938 94.0723 2355.17
-532.375 93.9733 2352.69
-556.163 94.4507 2364.64
-575.608 94.1827 2357.93
-597.595 94.3349 2361.74
-617.323 94.1323 2356.67
-638.752 94.1938 2358.21
-658.545 94.0179 2353.8
-678.219 93.8363 2349.26
-701.192 94.1084 2356.07
-724.228 94.3729 2362.69
-744.616 94.2872 2360.55
-764.92 94.1958 2358.26
-787.032 94.3259 2361.52
-805.909 94.0717 2355.15
-829.929 94.4154 2363.76
-849.631 94.2631 2359.95
-868.527 94.031 2354.13
-888.691 93.9437 2351.95
-910.207 94.0002 2353.36
-933.16 94.1991 2358.34
-951.636 93.9473 2352.04
-973.013 93.9866 2353.02
-999.015 94.4615 2364.91
-1015.64 94.0483 2354.57
-1039.7 94.3267 2361.54
-1056.43 93.9425 2351.92
-1074.22 93.6647 2344.96
-1101.56 94.2154 2358.75
-1121.32 94.1087 2356.08
-1140.98 93.9977 2353.3
-1165.41 94.2763 2360.27
-1191.67 94.6908 2370.65
-1206.18 94.1736 2357.7
-1227.37 94.1865 2358.03
-1241.49 93.6656 2344.99
-1274.79 94.5851 2368.01
-1285.79 93.8474 2349.54
-1321.26 94.8901 2375.64
-1335.38 94.3913 2363.15
1223.5 76.551 2467.23
1171.17 74.6185 2404.95
1166.68 75.7186 2440.4
1131.46 74.8288 2411.72
1119.18 75.4503 2431.75
1085.16 74.6019 2404.41
1069.68 75.02 2417.89
1042.02 74.5831 2403.8
1023.89 74.8242 2411.58
998.674 74.5471 2402.64
979.19 74.6949 2407.41
952.186 74.2628 2393.48
928.24 74.0549 2386.78
902.214 73.6674 2374.29
886.762 74.1454 2389.7
864.547 74.0676 2387.19
841.321 73.8969 2381.69
821.71 74.0433 2386.41
791.166 73.186 2358.78
779.63 74.0883 2387.86
757.893 74.0446 2386.45
735.836 73.9662 2383.92
712.625 73.7637 2377.4
690.312 73.6446 2373.56
668.289 73.5498 2370.5
649.693 73.8384 2379.8
628.348 73.8235 2379.32
607.71 73.8934 2381.58
584.364 73.6273 2373
562.045 73.4755 2368.11
541.107 73.4993 2368.87
519.046 73.3664 2364.59
495.375 72.985 2352.3
477.807 73.5088 2369.18
454.998 73.2374 2360.43
433.572 73.1731 2358.36
412.839 73.2253 2360.04
392.867 73.4252 2366.49
371.824 73.4364 2366.85
351.188 73.534 2369.99
328.404 73.1656 2358.12
307.355 73.1596 2357.93
287.491 73.456 2367.48
265.204 73.1309 2357
244.319 73.1696 2358.25
223.018 73.0793 2355.34
202.265 73.1684 2358.21
180.987 73.0665 2354.93
159.822 72.9896 2352.45
138.278 72.6902 2342.8
118.098 73.1281 2356.91
97.2055 73.2197 2359.86
76.029 73.0887 2355.64
54.8768 72.8898 2349.23
34.0237 73.0881 2355.62
12.9894 72.9085 2349.83
-7.9546 72.8472 2347.86
-28.9964 73.1212 2356.69
-49.9795 73.0793 2355.34
-70.8728 72.9696 2351.8
-91.5788 72.7612 2345.08
-113.162 73.1977 2359.15
-133.679 72.9159 2350.07
-154.22 72.7215 2343.81
-175.752 72.9855 2352.31
-196.254 72.8108 2346.68
-217.561 72.9394 2350.83
-239.022 73.0929 2355.78
-260.003 73.0864 2355.57
-281.076 73.1051 2356.17
-302.264 73.1488 2357.58
-323.18 73.1253 2356.82
-343.768 73.035 2353.91
-362.288 72.5409 2337.99
-385.189 72.9302 2350.53
-405.724 72.8545 2348.09
-427.972 73.0787 2355.32
-449.75 73.2054 2359.4
-469.412 72.9917 2352.51
-489.328 72.8341 2347.44
-510.182 72.8233 2347.09
-532.315 72.9888 2352.42
-551.523 72.7559 2344.92
-573.646 72.9105 2349.9
-596.056 73.0893 2355.66
-614.72 72.8123 2346.73
-635.281 72.7708 2345.4
-657.661 72.9337 2350.64
-680.08 73.0908 2355.71
-701.395 73.1233 2356.76
-723.265 73.2101 2359.55
-740.019 72.7888 2345.97
-764.522 73.1319 2357.03
-783.463 72.9388 2350.81
-802.901 72.8008 2346.36
-825.526 72.9515 2351.22
-846.144 72.9218 2350.26
-866.001 72.8294 2347.29
-886.463 72.7912 2346.05
-907.573 72.8067 2346.55
-925.324 72.5581 2338.54
-949.645 72.8242 2347.12
-964.873 72.3966 2333.34
-993.059 72.9389 2350.81
-1012.35 72.8186 2346.93
-1032.72 72.7801 2345.69
-1054.66 72.8509 2347.98
-1071.58 72.579 2339.21
-1098.47 72.9794 2352.12
-1115.6 72.729 2344.05
-1135.6 72.6719 2342.21
-1163.49 73.112 2356.39
-1183.89 73.0742 2355.17
-1195.55 72.5083 2336.94
-1217.52 72.5757 2339.11
-1247.41 73.105 2356.17
-1272.73 73.3538 2364.19
-1296.18 73.4884 2368.52
-1303.12 72.697 2343.02
-1328.33 72.9343 2350.67
1254.82 55.9503 2530.4
1204.66 54.6971 2473.72
1183.72 54.7487 2476.05
1168.63 55.0778 2490.94
1127.76 54.1813 2450.39
1109.64 54.3638 2458.65
1087.29 54.3424 2457.68
1045.81 53.3443 2412.54
1033.08 53.8017 2433.23
1005.4 53.4833 2418.82
985.415 53.5693 2422.71
954.598 53.057 2399.55
937.128 53.2801 2409.64
915.896 53.2947 2410.3
887.294 52.871 2391.13
867.452 52.9611 2395.21
845.827 52.9442 2394.45
817.978 52.5268 2375.57
800.554 52.7744 2386.77
779.486 52.7888 2387.42
751.096 52.2942 2365.05
735.996 52.723 2384.44
714.503 52.7057 2383.66
691.859 52.5999 2378.88
672.776 52.7667 2386.42
647.993 52.4828 2373.58
631.04 52.8352 2389.51
606.115 52.5214 2375.33
585.928 52.6105 2379.35
563.095 52.4596 2372.53
541.896 52.4552 2372.33
519.592 52.3391 2367.08
499.608 52.4567 2372.4
473.963 51.9641 2350.12
456.426 52.356 2367.84
432.405 52.0061 2352.02
413.451 52.2609 2363.54
391.812 52.1854 2360.13
370.669 52.1714 2359.49
349.365 52.1314 2357.69
327.929 52.0655 2354.71
306.263 51.9516 2349.55
287.438 52.3382 2367.04
264.708 52.0186 2352.58
244.48 52.1781 2359.8
223.541 52.2017 2360.87
201.714 52.0011 2351.79
181.259 52.1488 2358.47
160.266 52.1602 2358.99
139.195 52.1454 2358.32
118.076 52.1045 2356.47
97.3108 52.2361 2362.42
76.176 52.1869 2360.19
55.1699 52.2219 2361.78
34.0607 52.1423 2358.18
13.0146 52.0585 2354.39
-7.99374 52.1695 2359.41
-29.0032 52.1217 2357.25
-50.0126 52.1139 2356.89
-70.9196 52.0357 2353.36
-92.0295 52.108 2356.63
-113.189 52.1762 2359.71
-133.995 52.0857 2355.62
-154.059 51.7706 2341.37
-176.315 52.1792 2359.85
-196.55 51.9664 2350.22
-218.625 52.2341 2362.33
-239.078 52.1014 2356.33
-259.515 51.9869 2351.15
-280.668 52.0222 2352.75
-302.208 52.1192 2357.13
-323.256 52.1244 2357.37
-343.27 51.9725 2350.5
-364.515 52.0136 2352.36
-385.763 52.0507 2354.03
-407.69 52.1708 2359.47
-425.747 51.8083 2343.07
-448.73 52.051 2354.05
-468.541 51.9205 2348.15
-489.439 51.9165 2347.97
-513.27 52.2112 2361.3
-531.993 51.9836 2351
-552.105 51.9037 2347.39
-574.249 52.0137 2352.36
-596.924 52.1625 2359.09
-613.589 51.7938 2342.42
-635.944 51.9138 2347.84
-659.421 52.1149 2356.94
-676.901 51.8442 2344.7
-700.692 52.0586 2354.39
-719.906 51.9304 2348.59
-741.682 51.989 2351.25
-764.378 52.1071 2356.59
-784.895 52.0743 2355.1
-804.366 51.9757 2350.64
-828.681 52.1871 2360.21
-845.305 51.9157 2347.93
-868.604 52.0574 2354.34
-887.707 51.947 2349.34
-904.514 51.7103 2338.64
-932.871 52.1298 2357.61
-948.338 51.8263 2343.89
-972.327 51.9916 2351.36
-994.037 52.0306 2353.13
-1013.74 51.965 2350.16
-1034.54 51.9575 2349.82
-1053.64 51.8665 2345.7
-1077.62 52.0145 2352.4
-1094.87 51.8381 2344.42
-1110.66 51.6003 2333.67
-1128.41 51.4609 2327.36
-1158.4 51.8749 2346.08
-1184.11 52.0857 2355.62
-1210.81 52.3318 2366.75
-1213.13 51.5342 2330.67
-1237.81 51.6972 2338.05
-1264.91 51.9538 2349.65
-1292.1 52.2061 2361.06
-1321.33 52.5313 2375.77
-1333.48 52.178 2359.79
1462.88 38.9261 2949.97
1427.65 38.6841 2931.63
1272.28 35.1171 2661.31
1209.55 34.02 2578.17
1127.07 32.3142 2448.9
1145.57 33.4935 2538.26
1196.25 35.6803 2703.99
1094.07 33.3035 2523.87
1144.98 35.5853 2696.79
1080.76 34.3097 2600.12
1070.31 34.723 2631.44
1032.72 34.2542 2595.91
982.561 33.3377 2526.46
982.797 34.1281 2586.36
970.558 34.5129 2615.52
912.517 33.2478 2519.64
911.223 34.0386 2579.58
853.252 32.6984 2478.01
809.253 31.8366 2412.7
817.149 33.0251 2502.77
780.562 32.4321 2457.83
780.043 33.3467 2527.14
752.791 33.1389 2511.39
713.74 32.3831 2454.11
697.293 32.6373 2473.38
676.266 32.6869 2477.14
662.281 33.0917 2507.81
633.399 32.7544 2482.25
613.511 32.8746 2491.36
587.193 32.6463 2474.06
565.358 32.6592 2475.04
526.745 31.6646 2399.66
499.889 31.3224 2373.73
477.395 31.2354 2367.14
456.685 31.2624 2369.18
433.556 31.1185 2358.28
413.514 31.1927 2363.9
392.527 31.1998 2364.44
371.812 31.2305 2366.77
350.151 31.1807 2362.99
329.359 31.2068 2364.97
307.991 31.1783 2362.81
287 31.1865 2363.43
264.86 31.0613 2353.94
245.033 31.209 2365.14
223.011 31.0787 2355.26
202.258 31.1166 2358.14
181.211 31.1127 2357.84
160.156 31.1064 2357.36
139.158 31.1108 2357.69
118.344 31.1654 2361.83
97.2026 31.1385 2359.79
76.059 31.0959 2356.57
55.0385 31.0904 2356.15
34.1094 31.1616 2361.55
13.1106 31.2964 2371.76
-8.02549 31.2571 2368.78
-29.0447 31.1493 2360.62
-50.1053 31.1579 2361.26
-71.1416 31.1508 2360.72
-92.2391 31.1675 2361.99
-113.063 31.1028 2357.08
-134.016 31.0883 2355.99
-154.74 31.0318 2351.71
-176.119 31.1046 2357.23
-197.331 31.1354 2359.56
-217.83 31.0586 2353.74
-238.914 31.0714 2354.71
-260.982 31.1997 2364.44
-280.83 31.0634 2354.11
-302.381 31.1213 2358.49
-322.762 31.059 2353.77
-346.357 31.2948 2371.64
-365.183 31.0973 2356.67
-386.792 31.1454 2360.31
-407.412 31.113 2357.86
-426.706 30.9874 2348.35
-449.172 31.0933 2356.37
-469.199 31.0283 2351.45
-491.145 31.0905 2356.15
-512.073 31.0856 2355.79
-535.825 31.2459 2367.93
-554.934 31.1335 2359.42
-576.705 31.1732 2362.43
-594.56 31.0059 2349.75
-615.96 31.0286 2351.47
-637.083 31.0363 2352.05
-661.942 31.2197 2365.95
-677.832 30.9818 2347.92
-704.787 31.2488 2368.15
-724.991 31.2096 2365.18
-744.797 31.156 2361.12
-766.337 31.1759 2362.63
-792.278 31.3689 2377.26
-810.306 31.2468 2368
-828.466 31.1358 2359.59
-849.149 31.1228 2358.61
-869.416 31.0956 2356.54
-893.131 31.19 2363.7
-917.262 31.2943 2371.6
-937.413 31.2612 2369.09
-950.342 30.9939 2348.84
-971.311 30.9948 2348.91
-996.893 31.1398 2359.89
-1015.45 31.0639 2354.14
-1039.51 31.1559 2361.11
-1056.24 31.0289 2351.48
-1080.26 31.1169 2358.16
-1101.36 31.119 2358.31
-1132.71 31.4053 2380.01
-1149.05 31.2725 2369.95
-1166.07 31.1626 2361.62
-1195.04 31.3702 2377.36
-1205.04 31.0814 2355.47
-1229.44 31.1677 2362.01
-1262.29 31.4617 2384.29
-1264.59 30.9969 2349.06
-1285.06 30.9854 2348.19
-1306.91 31.0071 2349.84
-1351.35 31.5557 2391.41
1325.7 11.4407 2673.32
1226.78 10.7809 2519.15
1199.47 10.7375 2509.01
1153.56 10.5228 2458.83
1143.03 10.6287 2483.57
1118.49 10.606 2478.27
1080.62 10.4534 2442.62
1061.52 10.4799 2448.8
1050.09 10.5847 2473.29
1016.35 10.4643 2445.16
988.629 10.402 2430.61
973.274 10.47 2446.49
944.569 10.3941 2428.77
913.598 10.2892 2404.25
889.565 10.2593 2397.25
875.805 10.3492 2418.27
856.995 10.3826 2426.06
825.964 10.2657 2398.76
807.719 10.3058 2408.13
782.135 10.2519 2395.53
760.942 10.2541 2396.05
743.822 10.3129 2409.79
716.954 10.2361 2391.84
669.668 9.85409 2302.57
675.636 10.2563 2396.56
658.406 10.3212 2411.72
645.222 10.456 2443.22
617.622 10.3584 2420.42
601.122 10.4467 2441.05
584.003 10.5305 2460.62
561.837 10.5262 2459.63
525.283 10.2411 2393
501.163 10.1845 2379.78
479.013 10.1647 2375.16
456.34 10.1315 2367.4
434.312 10.1101 2362.39
413.718 10.1215 2365.07
392.72 10.1238 2365.6
370.754 10.1 2360.03
350.178 10.1134 2363.17
328.418 10.0922 2358.22
307.497 10.0957 2359.02
287.505 10.1323 2367.59
266.223 10.1257 2366.05
244.433 10.0971 2359.35
223.97 10.123 2365.4
202.616 10.1097 2362.31
180.765 10.0658 2352.04
159.897 10.0723 2353.55
138.815 10.0651 2351.89
118.053 10.0828 2356.02
97.1278 10.0912 2357.98
75.9036 10.0646 2351.75
55.0895 10.0927 2358.34
34.0687 10.0944 2358.73
12.9956 10.0611 2350.94
-7.98885 10.0911 2357.96
-29.01 10.0904 2357.8
-49.9395 10.0718 2353.45
-70.6652 10.0353 2344.91
-91.6219 10.0407 2346.19
-113.359 10.1138 2363.26
-134.48 10.1176 2364.16
-154.621 10.0566 2349.9
-175.313 10.0418 2346.44
-197.013 10.0817 2355.75
-217.755 10.0696 2352.92
-238.528 10.0609 2350.91
-259.685 10.0686 2352.69
-280.615 10.0669 2352.3
-302.15 10.0857 2356.69
-322.923 10.0782 2354.94
-342.771 10.0446 2347.08
-365.058 10.0821 2355.86
-384.881 10.0513 2348.65
-406.251 10.0619 2351.14
-426.917 10.0549 2349.51
-447.896 10.0556 2349.67
-469.038 10.0598 2350.64
-490.774 10.0758 2354.37
-511.049 10.0617 2351.08
-534.32 10.1053 2361.28
-552.686 10.0564 2349.86
-576.985 10.1151 2363.57
-595.339 10.0692 2352.83
-615.751 10.0599 2350.67
-640.266 10.1161 2363.8
-657.41 10.056 2349.75
-678.158 10.053 2349.05
-699.132 10.0534 2349.15
-723.87 10.1064 2361.53
-743.947 10.0931 2358.43
-764.849 10.0915 2358.04
-781.899 10.0404 2346.12
-807.449 10.0984 2359.65
-829.186 10.1069 2361.64
-851.24 10.1187 2364.41
-870.86 10.1018 2360.46
-889.657 10.0763 2354.51
-913.356 10.1063 2361.5
-929.013 10.0479 2347.86
-952.281 10.0726 2353.63
-975.579 10.0965 2359.23
-995.403 10.0843 2356.36
-1013.54 10.0558 2349.71
-1039.58 10.1053 2361.26
-1062.45 10.1226 2365.32
-1081.58 10.1043 2361.04
-1099.74 10.0778 2354.84
-1127.2 10.1359 2368.43
-1139.53 10.0583 2350.3
-1173.67 10.1727 2377.01
-1194.21 10.1671 2375.72
-1215.59 10.1687 2376.09
-1232.29 10.1318 2367.47
-1251.61 10.1174 2364.11
-1268.93 10.0875 2357.13
-1306.74 10.2188 2387.81
-1340.04 10.3113 2409.41
-1343.07 10.1715 2376.75
1495.41 -13.9808 3015.55
1404.1 -13.3675 2883.26
1301.69 -12.6237 2722.82
1294.57 -12.7932 2759.39
1272.63 -12.82 2765.17
1281.39 -13.1632 2839.21
1182.98 -12.3972 2673.98
1138.68 -12.1784 2626.79
1100.89 -12.0215 2592.95
1087.35 -12.1284 2615.99
1013.87 -11.5566 2492.67
1028.35 -11.9844 2584.93
998.937 -11.9085 2568.56
948.762 -11.5757 2496.79
935.834 -11.6923 2521.94
898.618 -11.5037 2481.26
888.303 -11.6587 2514.69
868.612 -11.6955 2522.62
841.108 -11.6262 2507.67
803.86 -11.4147 2462.07
777.286 -11.3473 2447.51
752.079 -11.2964 2436.54
728.438 -11.2667 2430.15
712.953 -11.3653 2451.4
680.519 -11.1913 2413.88
667.887 -11.3423 2446.45
645.476 -11.3318 2444.18
620.588 -11.2755 2432.05
595.144 -11.2047 2416.77
575.689 -11.2456 2425.59
552.706 -11.2181 2419.65
527.641 -11.1443 2403.75
498.689 -10.9788 2368.03
477.035 -10.9663 2365.35
457.286 -10.9986 2372.3
435.396 -10.9799 2368.28
411.994 -10.9193 2355.21
390.427 -10.9034 2351.79
370.909 -10.9462 2361.02
348.858 -10.9149 2354.27
328.418 -10.9333 2358.22
308.272 -10.9646 2364.97
286.781 -10.9491 2361.63
265.216 -10.9281 2357.1
244.639 -10.9477 2361.34
222.273 -10.8835 2347.48
202.53 -10.9476 2361.31
180.688 -10.9 2351.04
160.236 -10.9347 2358.54
139.168 -10.9317 2357.87
118.153 -10.9323 2358.02
97.0454 -10.9229 2355.98
75.9035 -10.9033 2351.75
54.996 -10.9152 2354.33
34.0253 -10.9217 2355.73
13.0398 -10.9366 2358.94
-8.00577 -10.9552 2362.96
-28.9485 -10.9081 2352.8
-49.8757 -10.8972 2350.45
-70.8458 -10.8994 2350.91
-91.8949 -10.9099 2353.18
-112.832 -10.9057 2352.27
-134.253 -10.9423 2360.16
-155.146 -10.9317 2357.88
-175.984 -10.9202 2355.41
-197.013 -10.9218 2355.75
-217.386 -10.8902 2348.94
-239.033 -10.9224 2355.88
-260.343 -10.9353 2358.65
-280.022 -10.8828 2347.33
-302.659 -10.9445 2360.65
-323.058 -10.9226 2355.93
-343.348 -10.9 2351.04
-364.751 -10.9132 2353.88
-383.263 -10.8431 2338.78
-405.91 -10.8913 2349.16
-427.631 -10.9111 2353.44
-448.082 -10.8982 2350.65
-470.016 -10.9208 2355.54
-488.937 -10.8746 2345.56
-511.898 -10.9183 2354.98
-532.995 -10.9203 2355.42
-550.854 -10.8584 2342.07
-576.035 -10.9401 2359.68
-597.055 -10.9397 2359.61
-615.751 -10.8982 2350.67
-638.174 -10.9233 2356.08
-658.217 -10.9074 2352.63
-677.325 -10.8774 2346.16
-699.987 -10.9045 2352.02
-720.059 -10.891 2349.09
-743.645 -10.9298 2357.47
-764.231 -10.9236 2356.13
-791.383 -11.0091 2374.57
-813.599 -11.0232 2377.63
-838.129 -11.0672 2387.11
-858.691 -11.0579 2385.11
-873.974 -10.9828 2368.9
-892.484 -10.9507 2361.99
-925.259 -11.0912 2392.28
-959.918 -11.2474 2425.97
-971.782 -11.1355 2401.83
-975.96 -10.9422 2360.15
-1002.02 -10.9972 2372.02
-1025.82 -11.0257 2378.17
-1036.76 -10.9177 2354.86
-1064.91 -10.9915 2370.79
-1098.24 -11.1149 2397.4
-1099.74 -10.9176 2354.84
-1137.51 -11.081 2390.1
-1180.97 -11.2929 2435.78
-1184.3 -11.1202 2398.53
-1194.66 -11.0185 2376.61
-1219.68 -11.0533 2384.1
-1231.36 -10.9679 2365.7
-1256.29 -11.0015 2372.94
-1282.68 -11.0466 2382.66
-1288.01 -10.9118 2353.59
-1323.51 -11.0328 2379.69
-1355.86 -11.1241 2399.39
1312.73 -35.8746 2647.17
1259.53 -35.0511 2586.4
1252.87 -35.5159 2620.7
1193.41 -34.4732 2543.76
1173.89 -34.5662 2550.62
1165.31 -34.9915 2582
1126.67 -34.513 2546.69
1098.04 -34.3278 2533.03
1070.34 -34.1645 2520.98
1050.05 -34.2359 2526.25
1028.87 -34.2806 2529.55
1005.36 -34.2481 2527.15
971.321 -33.8471 2497.56
953.667 -34.0116 2509.7
929.853 -33.9591 2505.82
914.556 -34.2227 2525.27
886.574 -34.0129 2509.8
861.387 -33.9023 2501.64
839.457 -33.9175 2502.75
820.249 -34.0464 2512.27
798.112 -34.0576 2513.09
776.501 -34.0925 2515.67
750.203 -33.9176 2502.76
728.258 -33.9348 2504.03
701.902 -33.741 2489.73
687.587 -34.1323 2518.61
660.491 -33.8942 2501.03
634.385 -33.692 2486.12
615.182 -33.8551 2498.15
595.734 -34.0164 2510.05
569.141 -33.7664 2491.6
543.25 -33.5394 2474.86
514.929 -33.1368 2445.15
480.556 -32.292 2382.81
454.979 -31.9874 2360.34
434.096 -31.9994 2361.22
413.685 -32.049 2364.88
394.162 -32.1765 2374.29
370.569 -31.9674 2358.86
351.029 -32.1037 2368.92
330.185 -32.1307 2370.9
307.602 -31.9805 2359.82
286.637 -31.9889 2360.44
265.418 -31.968 2358.9
244.826 -32.0254 2363.14
223.292 -31.959 2358.24
202.77 -32.0385 2364.1
180.674 -31.8589 2350.85
159.884 -31.8929 2353.36
139.334 -31.992 2360.68
118.244 -31.9805 2359.82
97.1198 -31.9529 2357.78
76.2521 -32.0175 2362.55
55.0382 -31.9306 2356.14
34.0225 -31.9224 2355.54
13.0166 -31.9117 2354.75
-8.00174 -32.0069 2361.77
-29.0076 -31.9504 2357.61
-50.0626 -31.9728 2359.25
-71.0811 -31.9654 2358.71
-92.2387 -32.0098 2361.98
-113.11 -31.9568 2358.07
-134.072 -31.9419 2356.97
-155.199 -31.965 2358.68
-176.193 -31.9586 2358.21
-197.414 -31.9903 2360.54
-217.46 -31.8439 2349.74
-239.014 -31.9245 2355.69
-259.774 -31.8947 2353.49
-281.421 -31.9701 2359.06
-302.126 -31.9354 2356.5
-322.896 -31.9117 2354.75
-344.477 -31.9661 2358.76
-366.253 -32.0314 2363.58
-385.173 -31.8533 2350.44
-407.41 -31.9537 2357.85
-426.882 -31.8381 2349.32
-449.732 -31.9735 2359.31
-469.784 -31.9067 2354.38
-491.143 -31.9306 2356.14
-511.858 -31.9124 2354.8
-536.264 -32.1167 2369.87
-556.992 -32.0936 2368.17
-575.517 -31.9498 2357.56
-594.557 -31.8438 2349.74
-616.211 -31.8802 2352.42
-636.557 -31.8488 2350.11
-660.592 -31.9981 2361.12
-682.543 -32.0403 2364.24
-701.931 -31.9633 2358.56
-724.988 -32.053 2365.17
-747.801 -32.1271 2370.64
-772.504 -32.2762 2381.64
-793.539 -32.268 2381.04
-809.008 -32.0399 2364.21
-836.081 -32.2713 2381.28
-857.613 -32.2826 2382.12
-872.874 -32.063 2365.91
-900.196 -32.2864 2382.4
-916.898 -32.1274 2370.66
-931.522 -31.9043 2354.2
-961.214 -32.1958 2375.71
-980.478 -32.133 2371.07
-998.446 -32.0312 2363.56
-1024.16 -32.1771 2374.33
-1043.13 -32.1094 2369.34
-1076.31 -32.4731 2396.17
-1096.5 -32.4383 2393.6
-1119.13 -32.4756 2396.36
-1148.61 -32.7067 2413.41
-1153.41 -32.2395 2378.94
-1184.66 -32.5151 2399.27
-1208.51 -32.5812 2404.15
-1219.6 -32.3074 2383.95
-1249.29 -32.5268 2400.14
-1291.77 -33.0664 2439.95
-1298.71 -32.6936 2412.44
-1324.89 -32.8094 2420.99
-1348.22 -32.8517 2424.11
-1375.95 -32.9984 2434.93
1276.13 -57.8184 2573.38
1248.43 -57.5986 2563.59
1231.58 -57.8809 2576.16
1183.91 -56.6979 2523.51
1176.24 -57.4219 2555.73
1151.17 -57.3083 2550.67
1109.53 -56.3484 2507.95
1090.34 -56.5127 2515.26
1070.19 -56.6334 2520.64
1042.62 -56.3576 2508.36
1016.3 -56.1392 2498.64
998.57 -56.3962 2510.08
967.2 -55.8768 2486.96
945.721 -55.9178 2488.79
925.896 -56.061 2495.16
912.044 -56.5817 2518.34
873.793 -55.577 2473.62
854.102 -55.7312 2480.48
833.295 -55.8188 2484.38
817.338 -56.245 2503.35
789.523 -55.8562 2486.04
762.233 -55.4832 2469.44
742.342 -55.6426 2476.54
717.261 -55.4107 2466.22
698 -55.6281 2475.89
674.319 -55.4959 2470.01
654.776 -55.7068 2479.39
629.84 -55.4576 2468.31
606.244 -55.3126 2461.85
584.561 -55.3379 2462.98
564.378 -55.5126 2470.75
538.023 -55.0697 2451.04
512.377 -54.6652 2433.03
478.901 -53.3523 2374.6
457.558 -53.3324 2373.71
434.029 -53.0433 2360.85
412.931 -53.037 2360.57
392.464 -53.1154 2364.06
371.442 -53.1234 2364.41
350.388 -53.1274 2364.59
329.167 -53.1051 2363.6
307.165 -52.9451 2356.48
285.748 -52.8698 2353.12
265.488 -53.0135 2359.52
245.405 -53.2203 2368.73
222.88 -52.8868 2353.88
202.823 -53.1304 2364.72
181.181 -52.9671 2357.45
159.723 -52.8218 2350.99
139.076 -52.9413 2356.31
117.724 -52.7875 2349.46
97.1043 -52.966 2357.41
75.9819 -52.8935 2354.18
55.1695 -53.0638 2361.76
34.0171 -52.9155 2355.16
13.0256 -52.9427 2356.37
-7.99029 -52.9881 2358.39
-28.9292 -52.8272 2351.23
-49.991 -52.9316 2355.88
-70.6782 -52.695 2345.34
-91.8338 -52.8359 2351.61
-113.332 -53.0846 2362.69
-134.107 -52.9702 2357.59
-154.517 -52.7621 2348.33
-175.792 -52.8636 2352.85
-196.382 -52.7594 2348.21
-217.334 -52.7631 2348.37
-239.177 -52.9637 2357.31
-260.062 -52.9366 2356.1
-279.719 -52.6825 2344.79
-301.442 -52.8258 2351.17
-322.438 -52.8312 2351.41
-343.845 -52.8993 2354.44
-363.44 -52.6968 2345.42
-385.76 -52.8898 2354.02
-407.857 -53.034 2360.44
-428.603 -52.9971 2358.79
-446.854 -52.6695 2344.21
-469.711 -52.8897 2354.01
-487.803 -52.5776 2340.12
-511.355 -52.8554 2352.49
-531.769 -52.7997 2350.01
-554.161 -52.9373 2356.13
-576.852 -53.0923 2363.03
-596.92 -53.0035 2359.07
-617.638 -52.9764 2357.87
-638.553 -52.9676 2357.48
-659.686 -52.9767 2357.88
-679.392 -52.8742 2353.32
-699.832 -52.8333 2351.5
-721.072 -52.8535 2352.4
-760.324 -54.1554 2410.34
-788.124 -54.5924 2429.8
-796.901 -53.7237 2391.13
-827.989 -54.3651 2419.68
-844.242 -54.0246 2404.52
-868.667 -54.211 2412.82
-891.783 -54.3087 2417.17
-905.724 -53.8562 2397.03
-934.802 -54.3039 2416.95
-952.728 -54.0981 2407.8
-975.331 -54.1612 2410.6
-990.659 -53.8262 2395.69
-1018.54 -54.1731 2411.13
-1038.28 -54.0816 2407.06
-1049.04 -53.5353 2382.74
-1063.88 -53.215 2368.49
-1102.6 -54.0784 2406.92
-1147.32 -55.1977 2456.73
-1159.2 -54.7243 2435.67
-1175.94 -54.4938 2425.41
-1178.31 -53.6176 2386.41
-1195.33 -53.4272 2377.94
-1227.19 -53.8955 2398.78
-1254.21 -54.1384 2409.59
-1268.21 -53.8211 2395.47
-1272.48 -53.1079 2363.72
-1332.89 -54.7228 2435.6
-1347.08 -54.4187 2422.07
-1388.57 -55.2097 2457.27
1336.29 -84.569 2694.67
1319.52 -85.0369 2709.59
1239.53 -81.3715 2592.79
1198.11 -80.1472 2553.78
1166.81 -79.5656 2535.25
1144.36 -79.5762 2535.59
1127.91 -80.0128 2549.5
1111.98 -80.5054 2565.2
1068.02 -78.9465 2515.52
1045.85 -78.9663 2516.15
1028.14 -79.3304 2527.75
1001.32 -78.9924 2516.99
975.694 -78.7355 2508.8
948.008 -78.2963 2494.8
933.004 -78.9085 2514.31
922.061 -79.9029 2546
880.598 -78.2359 2492.88
853.919 -77.83 2479.95
834.069 -78.0416 2486.69
814.989 -78.3387 2496.15
788.443 -77.9147 2482.64
764.72 -77.7531 2477.5
742.753 -77.7659 2477.91
717.382 -77.4121 2466.63
698.658 -77.776 2478.23
672.852 -77.3494 2464.63
652.077 -77.4919 2469.17
629.451 -77.4168 2466.78
611.843 -77.9756 2484.59
587.66 -77.7071 2476.03
564.25 -77.5238 2470.19
542.185 -77.518 2470.01
513.084 -76.4629 2436.39
479.976 -74.6912 2379.93
455.182 -74.1092 2361.39
434.109 -74.1059 2361.28
414.213 -74.3134 2367.9
392.208 -74.1447 2362.52
370.424 -74.0008 2357.93
349.719 -74.0681 2360.08
330.331 -74.4407 2371.95
307.868 -74.1242 2361.87
287.006 -74.1749 2363.48
264.978 -73.9083 2354.99
244.729 -74.1347 2362.2
223.298 -74.0122 2358.3
202.775 -74.1962 2364.16
181.214 -73.9994 2357.89
160.43 -74.1095 2361.4
138.925 -73.8694 2353.75
117.946 -73.8739 2353.89
96.8753 -73.8098 2351.85
75.9959 -73.8966 2354.62
55.0395 -73.9463 2356.2
34.0955 -74.0842 2360.59
12.9672 -73.6203 2345.81
-7.99515 -74.0601 2359.82
-29.0575 -74.1177 2361.66
-50.0426 -74.0125 2358.31
-71.2032 -74.1524 2362.76
-91.8118 -73.7848 2351.05
-113.352 -74.1636 2363.12
-134.359 -74.129 2362.02
-155.465 -74.1513 2362.73
-176.197 -74.0113 2358.27
-197.252 -74.022 2358.61
-218.295 -74.0268 2358.76
-239.02 -73.9323 2355.75
-259.671 -73.8322 2352.56
-280.126 -73.6954 2348.2
-302.515 -74.051 2359.53
-321.955 -73.6854 2347.88
-343.62 -73.8426 2352.89
-364.12 -73.7459 2349.81
-385.346 -73.7986 2351.49
-407.422 -74.0002 2357.92
-427.074 -73.7636 2350.38
-448.435 -73.8303 2352.5
-470.19 -73.953 2356.41
-491.771 -74.039 2359.15
-509.54 -73.5676 2344.13
-532.309 -73.827 2352.4
-554.721 -74.0189 2358.51
-576.485 -74.1135 2361.52
-595.559 -73.8678 2353.7
-615.473 -73.7395 2349.61
-637.888 -73.9093 2355.02
-661.424 -74.1942 2364.1
-680.351 -73.9603 2356.64
-699.678 -73.7827 2350.98
-721.207 -73.8409 2352.84
-770.081 -76.6164 2441.28
-798.13 -77.2242 2460.64
-818.536 -77.0799 2456.05
-837.52 -76.8127 2447.53
-864.261 -77.2524 2461.54
-886.428 -77.2716 2462.15
-908.894 -77.3153 2463.55
-930.618 -77.2954 2462.91
-956.963 -77.6512 2474.25
-979.746 -77.7085 2476.08
-997.249 -77.3538 2464.77
-1029.8 -78.1564 2490.35
-1038.17 -77.1288 2457.6
-1063.41 -77.3708 2465.31
-1083.46 -77.2336 2460.94
-1103.39 -77.093 2456.46
-1133.19 -77.6337 2473.69
-1163.59 -78.1949 2491.57
-1179.59 -77.785 2478.51
-1208.86 -78.249 2493.3
-1242.25 -78.9588 2515.91
-1269.62 -79.2671 2525.74
-1285.69 -78.871 2513.12
-1293.2 -77.973 2484.5
-1325.04 -78.5472 2502.8
-1369.38 -79.8315 2543.72
-1395.51 -80.0292 2550.02
0 0 0
0 0 0
1307.97 -106.293 2637.58
1258.8 -104.17 2584.9
1251.28 -105.479 2617.36
1192.7 -102.452 2542.26
1165.25 -102.033 2531.86
1139.12 -101.715 2523.98
1134.88 -103.379 2565.27
1096.98 -101.981 2530.58
1066.17 -101.199 2511.16
1050.94 -101.893 2528.39
1021.08 -101.168 2510.4
996.98 -100.994 2506.08
968.903 -100.4 2491.34
953.778 -101.151 2509.99
927.875 -100.769 2500.49
910.232 -101.286 2513.33
880.016 -100.396 2491.23
852.049 -99.7219 2474.52
835.101 -100.336 2489.76
816.305 -100.756 2500.18
787.307 -99.9054 2479.07
766.265 -100.044 2482.5
739.092 -99.3664 2465.69
718.845 -99.607 2471.66
695.198 -99.3768 2465.95
674.495 -99.5662 2470.65
659.281 -100.606 2496.45
630.992 -99.6536 2472.82
609.03 -99.6675 2473.17
583.329 -99.0476 2457.78
566.526 -99.9492 2480.16
539.235 -98.9985 2456.57
507.985 -97.2096 2412.18
480.421 -95.9993 2382.14
458.257 -95.8058 2377.34
433.975 -95.1294 2360.56
414.773 -95.5543 2371.1
392.086 -95.1789 2361.78
372.325 -95.5113 2370.03
350.928 -95.439 2368.24
330.503 -95.6385 2373.19
307.901 -95.1923 2362.12
286.555 -95.0975 2359.76
265.9 -95.2352 2363.18
244.857 -95.2457 2363.44
223.416 -95.0884 2359.54
202.796 -95.2846 2364.41
181.54 -95.1925 2362.12
159.77 -94.7715 2351.67
139.705 -95.3876 2366.96
118.459 -95.2729 2364.12
97.0912 -94.9897 2357.09
76.294 -95.2622 2363.85
55.2787 -95.3663 2366.43
34.0847 -95.1005 2359.84
13.0404 -95.0687 2359.05
-7.97906 -94.9085 2355.07
-29.0482 -95.1435 2360.91
-50.0902 -95.1293 2360.55
-71.03 -94.9868 2357.02
-92.2114 -95.1588 2361.29
-113.268 -95.1622 2361.37
-134.373 -95.1984 2362.27
-155.219 -95.0662 2358.99
-175.323 -94.5654 2346.56
-197.606 -95.2215 2362.84
-218.318 -95.0672 2359.01
-239.045 -94.9459 2356
-259.37 -94.6973 2349.83
-281.222 -95.0016 2357.39
-301.912 -94.8986 2354.83
-323.347 -95.0279 2358.04
-343.657 -94.8309 2353.15
-364.16 -94.7067 2350.07
-385.227 -94.7347 2350.76
-409.167 -95.43 2368.02
-427.657 -94.8484 2353.58
-449.233 -94.9735 2356.69
-469.068 -94.7357 2350.79
-489.785 -94.689 2349.63
-511.507 -94.8323 2353.18
-533.25 -94.9681 2356.55
-555.011 -95.0967 2359.74
-578.444 -95.4918 2369.55
-594.155 -94.6294 2348.15
-619.847 -95.3611 2366.31
-637.698 -94.8781 2354.32
-660.959 -95.2051 2362.43
-680.704 -95.0211 2357.87
-703.178 -95.2176 2362.74
-728.025 -95.7148 2375.08
-774.668 -98.9683 2455.81
-795.125 -98.7895 2451.38
-815.457 -98.6053 2446.81
-839.869 -98.9111 2454.39
-859.381 -98.6389 2447.64
-882.454 -98.7789 2451.12
-906.564 -99.0253 2457.23
-931.065 -99.3019 2464.09
-949.127 -98.8948 2453.99
-978.74 -99.6824 2473.53
-996.601 -99.2648 2463.17
-1013.1 -98.7323 2449.96
-1046.44 -99.8297 2477.19
-1062.33 -99.2504 2462.82
-1080.76 -98.9273 2454.8
-1102.69 -98.9314 2454.9
-1126.23 -99.0766 2458.5
-1158.64 -99.9816 2480.96
-1167.69 -98.8752 2453.5
-1205.49 -100.199 2486.36
-1227.78 -100.209 2486.59
-1245.06 -99.8172 2476.88
-1268.07 -99.8895 2478.67
-1272.57 -98.5274 2444.88
-1312.55 -99.9111 2479.21
-1339.2 -100.251 2487.65
-1350.55 -99.4539 2467.86
-1431.03 -103.691 2573
-1436.65 -102.456 2542.36
1410.08 -139.943 2843.49
1372.12 -138.669 2817.59
1297.41 -133.564 2713.86
1216.5 -127.614 2592.98
1179.49 -126.129 2562.79
1159.29 -126.418 2568.68
1133.7 -126.119 2562.59
1091.44 -123.915 2517.82
1068.93 -123.908 2517.67
1056.72 -125.12 2542.29
1022.99 -123.781 2515.09
994.791 -123.067 2500.58
978.707 -123.853 2516.55
952.736 -123.395 2507.25
924.77 -122.651 2492.12
905.149 -123.004 2499.3
881.035 -122.749 2494.12
859.551 -122.857 2496.3
837.661 -122.91 2497.4
814.151 -122.723 2493.59
790.651 -122.526 2489.6
767.46 -122.368 2486.37
745.132 -122.342 2485.84
721.37 -122.071 2480.35
703.073 -122.738 2493.88
676.612 -121.976 2478.41
653.425 -121.773 2474.28
632.979 -122.084 2480.61
609.757 -121.863 2476.12
586.338 -121.585 2470.46
564.31 -121.584 2470.45
541.386 -121.383 2466.36
513.143 -119.922 2436.67
478.065 -116.663 2370.46
455.812 -116.378 2364.66
433.988 -116.179 2360.63
412.548 -116.068 2358.38
393.08 -116.531 2367.77
370.63 -116.111 2359.24
350.792 -116.508 2367.32
328.169 -115.973 2356.43
307.522 -116.109 2359.21
286.683 -116.189 2360.82
266.354 -116.503 2367.22
245.481 -116.614 2369.47
223.798 -116.325 2363.58
201.862 -115.829 2353.52
181.927 -116.501 2367.16
160.316 -116.134 2359.71
139.296 -116.15 2360.04
118.112 -116.01 2357.19
97.3404 -116.303 2363.14
76.0704 -115.997 2356.92
55.0701 -116.026 2357.5
34.0711 -116.094 2358.9
12.9855 -115.613 2349.12
-7.98941 -116.056 2358.13
-28.9384 -115.753 2351.98
-50.155 -116.326 2363.61
-71.3026 -116.447 2366.06
-92.1358 -116.116 2359.35
-113.032 -115.973 2356.44
-133.809 -115.772 2352.35
-155.288 -116.151 2360.05
-175.7 -115.735 2351.61
-197.527 -116.242 2361.91
-218.14 -116.005 2357.09
-238.548 -115.71 2351.1
-259.816 -115.847 2353.87
-280.401 -115.681 2350.51
-302.048 -115.946 2355.89
-321.457 -115.373 2344.25
-342.801 -115.523 2347.29
-364.477 -115.76 2352.11
-384.754 -115.552 2347.88
-406.798 -115.868 2354.31
-428.564 -116.078 2358.57
-450.182 -116.23 2361.67
-469.865 -115.892 2354.78
-489.802 -115.642 2349.71
-511.1 -115.721 2351.31
-531.726 -115.647 2349.82
-554.802 -116.092 2358.85
-574.673 -115.858 2354.1
-593.933 -115.522 2347.27
-616.579 -115.845 2353.83
-638.506 -116.016 2357.3
-658.831 -115.894 2354.83
-679.069 -115.765 2352.2
-702.351 -116.147 2359.97
-728.638 -116.989 2377.08
-756.958 -118.101 2399.67
-792.989 -120.322 2444.79
-815.481 -120.424 2446.88
-839.893 -120.797 2454.46
-855.767 -119.955 2437.35
-882.143 -120.59 2450.25
-904.517 -120.661 2451.68
-927.21 -120.769 2453.89
-948.798 -120.732 2453.14
-971.052 -120.78 2454.11
-994.386 -120.957 2457.7
-1006.65 -119.808 2434.35
-1034.82 -120.561 2449.67
-1061.58 -121.123 2461.07
-1073.96 -120.054 2439.35
-1101.1 -120.644 2451.35
-1130.85 -121.493 2468.59
-1135.85 -119.701 2432.18
-1162.59 -120.223 2442.79
-1207.28 -122.549 2490.05
-1205.71 -120.179 2441.9
-1242.87 -121.686 2472.52
-1269.94 -122.169 2482.34
-1281.86 -121.204 2462.72
-1296.71 -120.543 2449.3
-1301.37 -118.973 2417.39
-1358.29 -122.153 2482.01
-1367.46 -121.007 2458.71
-1446.05 -125.942 2558.99
0 0 0
1633.93 -195.042 3355.21
0 0 0
1311.88 -162.551 2796.28
1261.69 -159.361 2741.39
1240.58 -159.79 2748.79
1191.42 -156.551 2693.07
1158.13 -155.306 2671.64
1136.4 -155.593 2676.59
1088.1 -152.175 2617.79
1060.57 -151.576 2607.49
1031.66 -150.749 2593.26
1005.45 -150.287 2585.3
976.812 -149.433 2570.61
942.446 -147.639 2539.76
932.988 -149.756 2576.17
892.966 -146.95 2527.89
865.035 -146.039 2512.23
845.239 -146.49 2519.99
826.815 -147.21 2532.38
795.143 -145.546 2503.74
774.782 -145.915 2510.1
754.553 -146.332 2517.27
728.303 -145.571 2504.18
706.555 -145.691 2506.24
686.83 -146.249 2515.83
664.35 -146.238 2515.65
635.658 -144.811 2491.1
614.496 -145.058 2495.36
590.224 -144.563 2486.83
567.611 -144.451 2484.91
549.06 -145.405 2501.32
511.88 -141.298 2430.67
479.228 -138.133 2376.22
455.036 -137.226 2360.63
435.232 -137.62 2367.39
414.421 -137.718 2369.09
392.57 -137.463 2364.7
370.613 -137.139 2359.13
351.36 -137.838 2371.15
329.255 -137.436 2364.23
308.281 -137.482 2365.03
286.669 -137.231 2360.7
265.559 -137.198 2360.15
243.822 -136.809 2353.45
223.693 -137.333 2362.46
201.511 -136.575 2349.42
181.076 -136.962 2356.09
160.104 -136.992 2356.6
138.877 -136.779 2352.94
117.856 -136.73 2352.08
96.8421 -136.669 2351.04
76.0985 -137.061 2357.79
54.9039 -136.631 2350.39
34.0548 -137.06 2357.77
13.0234 -136.956 2355.99
-8.00252 -137.306 2362
-28.9614 -136.832 2353.85
-49.8558 -136.58 2349.51
-70.9077 -136.781 2352.96
-92.2087 -137.26 2361.22
-113.217 -137.208 2360.31
-134.142 -137.086 2358.21
-154.625 -136.606 2349.96
-175.988 -136.926 2355.47
-197.351 -137.178 2359.79
-217.669 -136.724 2352
-238.536 -136.665 2350.98
-259.146 -136.481 2347.8
-280.506 -136.689 2351.39
-301.779 -136.829 2353.79
-322.256 -136.613 2350.08
-343.507 -136.732 2352.12
-364.613 -136.782 2352.99
-386.513 -137.109 2358.61
-405.589 -136.452 2347.31
-427.473 -136.758 2352.57
-448.293 -136.71 2351.75
-468.087 -136.368 2345.87
-493.449 -137.609 2367.2
-511.291 -136.736 2352.19
-534.128 -137.215 2360.44
-554.551 -137.061 2357.79
-572.994 -136.447 2347.22
-596.85 -137.12 2358.8
-617.062 -136.938 2355.67
-637.961 -136.916 2355.29
-660.961 -137.332 2362.44
-680.431 -137.011 2356.92
-703.182 -137.35 2362.76
-722.761 -137.068 2357.91
-762.637 -140.542 2417.68
-792.338 -142.002 2442.79
-814.815 -142.124 2444.88
-834.038 -141.687 2437.36
-859.373 -142.283 2447.62
-882.108 -142.431 2450.16
-900.335 -141.86 2440.35
-917.646 -141.176 2428.58
-946.963 -142.328 2448.4
-966.61 -142.008 2442.88
-993.229 -142.703 2454.84
-1011.96 -142.259 2447.2
-1028.96 -141.596 2435.8
-1063.13 -143.274 2464.67
-1081.98 -142.861 2457.57
-1102.71 -142.708 2454.93
-1130.82 -143.498 2468.52
-1130.76 -140.751 2421.27
-1165.57 -142.366 2449.05
-1198.1 -143.649 2471.12
-1219.4 -143.562 2469.62
-1246.44 -144.143 2479.61
-1271.73 -144.505 2485.84
-1284.15 -143.416 2467.11
-1294.83 -142.174 2445.74
-1336.4 -144.308 2482.45
-1367.86 -145.299 2499.49
-1409.68 -147.341 2534.62
-1470.09 -151.231 2601.54
1547.28 -209.197 3120.14
1510.82 -208.008 3102.42
1464.65 -205.412 3063.69
1316.79 -188.185 2806.76
1252.76 -182.502 2722
1235.9 -183.603 2738.42
1250.23 -189.475 2825.99
1205.22 -186.41 2780.29
1126.51 -177.894 2653.28
1110.19 -179.078 2670.92
1093.91 -180.32 2689.45
1058.47 -178.388 2660.64
1005.32 -173.315 2584.98
986.973 -174.145 2597.35
958.304 -173.149 2582.49
929.131 -172.01 2565.52
912.47 -173.19 2583.1
885.4 -172.403 2571.37
853.386 -170.586 2544.28
857.684 -176.127 2626.92
795.95 -168.039 2506.28
789.105 -171.406 2556.5
757.893 -169.523 2528.42
739.634 -170.51 2543.14
709.169 -168.658 2515.51
684.898 -168.205 2508.76
663.75 -168.515 2513.38
638.04 -167.647 2500.44
613.935 -167.154 2493.08
594.983 -168.079 2506.88
571.311 -167.692 2501.1
540.425 -165.069 2461.98
510.785 -162.621 2425.47
481.142 -159.955 2385.72
457.625 -159.174 2374.06
436.983 -159.365 2376.92
413.854 -158.623 2365.84
393.338 -158.856 2369.32
371.031 -158.351 2361.8
349.121 -157.966 2356.04
328.938 -158.362 2361.95
308.241 -158.548 2364.73
288.316 -159.188 2374.27
266.417 -158.752 2367.78
244.716 -158.371 2362.08
224.698 -159.108 2373.08
202.679 -158.435 2363.04
181.664 -158.482 2363.74
160.489 -158.383 2362.26
139.447 -158.405 2362.59
118.539 -158.615 2365.73
97.3222 -158.412 2362.7
76.2816 -158.463 2363.47
55.1297 -158.235 2360.06
34.108 -158.328 2361.45
13.0383 -158.142 2358.67
-7.99469 -158.21 2359.69
-29.0926 -158.534 2364.51
-49.9763 -157.908 2355.18
-71.1389 -158.273 2360.63
-92.1187 -158.158 2358.91
-113.346 -158.431 2362.98
-133.955 -157.89 2354.91
-154.932 -157.871 2354.63
-176.114 -158.04 2357.15
-196.743 -157.73 2352.52
-218.284 -158.14 2358.65
-240.117 -158.671 2366.56
-260.427 -158.191 2359.41
-281.534 -158.231 2360.01
-301.741 -157.795 2353.49
-322.622 -157.745 2352.75
-343.752 -157.816 2353.8
-365.79 -158.271 2360.59
-385.658 -157.788 2353.4
-407.749 -158.218 2359.81
-425.994 -157.187 2344.43
-448.239 -157.659 2351.47
-470.18 -157.987 2356.36
-492.779 -158.499 2363.99
-513.987 -158.539 2364.59
-535.167 -158.568 2365.03
-554.487 -158.065 2357.52
-576.716 -158.397 2362.47
-598.252 -158.522 2364.34
-618.512 -158.312 2361.21
-637.37 -157.769 2353.11
-656.587 -157.347 2346.81
-683.957 -158.844 2369.14
-702.538 -158.271 2360.6
-729.413 -159.546 2379.61
-770.657 -163.803 2443.1
-795.943 -164.527 2453.9
-818.825 -164.729 2456.91
-840.085 -164.602 2455.03
-865.89 -165.35 2466.18
-885.731 -164.95 2460.22
-910.949 -165.547 2469.12
-934.485 -165.817 2473.14
-954.786 -165.514 2468.62
-978.264 -165.763 2472.33
-993.129 -164.573 2454.59
-1017.2 -164.928 2459.88
-1037.02 -164.592 2454.87
-1060.26 -164.802 2458.01
-1082.28 -164.818 2458.25
-1102.2 -164.52 2453.8
-1128.22 -165.127 2462.85
-1142.92 -164.084 2447.3
-1170.19 -164.852 2458.75
-1194.95 -165.245 2464.61
-1223.27 -166.107 2477.47
-1250.81 -166.834 2488.32
-1271.17 -166.595 2484.75
-1286.81 -165.756 2472.23
-1305.48 -165.328 2465.85
-1344.34 -167.43 2497.2
-1400.82 -171.622 2559.72
-1389.67 -167.527 2498.65
-1461.62 -173.42 2586.54
1325.31 -203.014 2672.54
1261.07 -196.71 2589.55
1289.62 -204.915 2697.57
1187.72 -192.31 2531.63
1158.68 -191.242 2517.57
1153.17 -194.094 2555.12
1130.1 -194.044 2554.45
1102.61 -193.217 2543.57
1072.88 -191.956 2526.97
1057.13 -193.195 2543.28
1032.05 -192.746 2537.37
1011.8 -193.198 2543.32
977.289 -190.887 2512.9
951.349 -190.18 2503.6
926.538 -189.671 2496.89
900.419 -188.862 2486.24
887.038 -190.751 2511.11
863.141 -190.418 2506.73
837.04 -189.569 2495.55
822.831 -191.44 2520.17
789.152 -188.758 2484.88
770.41 -189.598 2495.93
745.711 -188.979 2487.77
730.01 -190.671 2510.05
703.611 -189.588 2495.79
678.977 -188.925 2487.07
660.81 -190.078 2502.24
634.948 -189.02 2488.32
611.184 -188.533 2481.91
590.25 -188.915 2486.94
567.414 -188.695 2484.04
543.947 -188.238 2478.03
506.364 -182.651 2404.48
481.243 -181.264 2386.22
455.269 -179.412 2361.84
437.076 -180.596 2377.42
415.317 -180.352 2374.21
392.769 -179.72 2365.89
370.956 -179.373 2361.32
349.927 -179.385 2361.48
329.834 -179.909 2368.38
307.92 -179.445 2362.27
287.414 -179.792 2366.84
266.139 -179.675 2365.3
244.666 -179.393 2361.59
223.147 -179.022 2356.7
203.488 -180.22 2372.48
181.397 -179.292 2360.26
160.32 -179.256 2359.78
139.3 -179.28 2360.1
118.614 -179.821 2367.22
97.2606 -179.364 2361.2
76.1368 -179.195 2358.98
55.2345 -179.618 2364.54
34.072 -179.193 2358.96
12.9914 -178.528 2350.19
-8.01327 -179.665 2365.17
-29.0129 -179.123 2358.03
-49.9658 -178.869 2354.69
-71.0938 -179.207 2359.14
-92.0992 -179.152 2358.41
-113.37 -179.537 2363.48
-133.983 -178.924 2355.42
-155.031 -178.979 2356.13
-175.631 -178.566 2350.69
-196.702 -178.668 2352.04
-217.963 -178.906 2355.18
-238.255 -178.377 2348.21
-260.154 -179.04 2356.94
-282.067 -179.612 2364.47
-301.933 -178.892 2354.99
-323.37 -179.136 2358.2
-343.971 -178.916 2355.3
-364.495 -178.682 2352.23
-384.775 -178.361 2348.01
-406.309 -178.625 2351.48
-428.229 -179.024 2356.73
-448.898 -178.888 2354.93
-471.259 -179.407 2361.77
-491.869 -179.244 2359.62
-507.745 -177.44 2335.88
-533.964 -179.25 2359.71
-551.643 -178.165 2345.42
-576.608 -179.426 2362.03
-596.917 -179.201 2359.06
-620.166 -179.844 2367.52
-639.079 -179.228 2359.42
-661.037 -179.479 2362.71
-681.344 -179.279 2360.08
-701.844 -179.141 2358.26
-727.528 -180.295 2373.46
-764.212 -184.033 2422.67
-797.948 -186.875 2460.08
-821.826 -187.318 2465.92
-839.285 -186.313 2452.69
-867.714 -187.733 2471.38
-881.179 -185.925 2447.57
-917 -188.807 2485.52
-936.787 -188.33 2479.24
-972.61 -191.024 2514.71
-988.003 -189.675 2496.95
-1009.05 -189.447 2493.94
-1018.94 -187.178 2464.07
-1046.16 -188.124 2476.52
-1054.95 -185.783 2445.7
-1092.56 -188.509 2481.59
-1105.29 -186.921 2460.69
-1139.26 -188.916 2486.96
-1149.07 -186.905 2460.48
-1197.88 -191.194 2516.94
-1202.61 -188.419 2480.4
-1218.67 -187.488 2468.15
-1234.05 -186.486 2454.97
-1261.45 -187.304 2465.73
-1286.63 -187.771 2471.88
-1324.44 -190.034 2501.66
-1372.53 -193.672 2549.56
-1359.9 -188.764 2484.95
-1404.03 -191.766 2524.47
-1483.49 -199.422 2625.25
1290.88 -220.949 2603.11
1273.44 -221.954 2614.95
1260.06 -223.718 2635.74
1184.06 -214.22 2523.83
1161.33 -214.178 2523.34
1136.91 -213.815 2519.07
1133.86 -217.541 2562.96
1097.19 -214.834 2531.07
1057.43 -211.397 2490.57
1037.74 -211.91 2496.63
1028.41 -214.61 2528.43
1005.28 -214.483 2526.93
979.575 -213.791 2518.78
948.277 -211.816 2495.51
922.836 -211.086 2486.91
915.126 -214.476 2526.85
880.832 -211.649 2493.54
855.127 -210.793 2483.46
834.602 -211.202 2488.28
810.854 -210.796 2483.49
789.244 -210.938 2485.17
768.145 -211.229 2488.59
741.789 -210.049 2474.69
721.459 -210.555 2480.65
698.549 -210.316 2477.84
678.79 -211.041 2486.38
653.499 -210.038 2474.56
629.841 -209.507 2468.31
606.245 -208.959 2461.86
585.939 -209.547 2468.78
565.698 -210.205 2476.53
543.577 -210.189 2476.34
511.769 -206.268 2430.15
478.549 -201.405 2372.86
454.013 -199.917 2355.32
434.612 -200.655 2364.02
414.515 -201.131 2369.62
390.049 -199.423 2349.51
370.698 -200.286 2359.68
348.953 -199.882 2354.91
328.916 -200.466 2361.8
307.447 -200.198 2358.64
286.252 -200.082 2357.27
264.726 -199.698 2352.75
244.699 -200.476 2361.91
222.708 -199.64 2352.06
201.812 -199.714 2352.93
180.428 -199.266 2347.66
159.869 -199.731 2353.13
138.555 -199.252 2347.49
118.131 -200.108 2357.58
97.3555 -200.611 2363.5
75.9862 -199.831 2354.31
55.1487 -200.388 2360.87
34.0765 -200.252 2359.27
13.0262 -200.016 2356.49
-7.9873 -200.102 2357.51
-28.9064 -199.412 2349.38
-49.9302 -199.721 2353.01
-70.9232 -199.76 2353.47
-91.9949 -199.952 2355.74
-113.05 -200.044 2356.83
-134.001 -199.952 2355.73
-154.659 -199.506 2350.48
-176.249 -200.226 2358.97
-196.812 -199.75 2353.35
-217.258 -199.258 2347.56
-238.69 -199.678 2352.51
-259.315 -199.409 2349.34
-280.688 -199.713 2352.92
-300.961 -199.245 2347.41
-321.248 -198.848 2342.73
-344.307 -200.11 2357.6
-364.089 -199.432 2349.61
-384.83 -199.324 2348.34
-406.537 -199.703 2352.8
-426.865 -199.399 2349.22
-448.03 -199.497 2350.38
-469.181 -199.58 2351.36
-489.499 -199.317 2348.26
-511.845 -199.867 2354.74
-531.623 -199.411 2349.36
-554.008 -199.93 2355.48
-573.856 -199.529 2350.76
-594.072 -199.28 2347.82
-614.197 -199.018 2344.73
-636.571 -199.478 2350.16
-660.332 -200.33 2360.19
-682.554 -200.677 2364.28
-699.679 -199.549 2350.99
-725.594 -200.921 2367.15
-759.519 -204.37 2407.79
