# .PCD v0.7 - Point Cloud Data file format
VERSION 0.7
FIELDS x y z
SIZE 4 4 4
TYPE F F F
COUNT 1 1 1
WIDTH 1916
HEIGHT 1
VIEWPOINT 0 0 0 1 0 0 0
POINTS 1916
DATA ascii
611.668 -122.245 2483.88
582.648 -120.82 2454.91
563.643 -121.441 2467.53
544.384 -122.055 2480.02
518.495 -121.172 2462.08
487.149 -118.88 2415.5
456.947 -116.667 2370.54
436.336 -116.808 2373.4
412.203 -115.972 2356.41
391.28 -115.997 2356.93
370.785 -116.16 2360.23
349.913 -116.217 2361.39
330.512 -116.801 2373.25
307.264 -116.012 2357.23
287.285 -116.433 2365.78
266.019 -116.357 2364.24
244.246 -116.027 2357.54
223.139 -115.982 2356.62
201.606 -115.683 2350.54
181.621 -116.305 2363.18
159.774 -115.742 2351.74
139.002 -115.905 2355.06
117.862 -115.765 2352.21
96.806 -115.664 2350.16
76.0382 -115.948 2355.92
54.9301 -115.731 2351.51
34.0278 -115.947 2355.9
12.991 -115.662 2350.12
-7.94204 -115.368 2344.15
-28.9015 -115.606 2348.98
-50.261 -116.572 2368.6
-70.9115 -115.808 2353.09
-91.5511 -115.38 2344.38
-113.08 -116.022 2357.44
-134.376 -116.263 2362.33
-155.223 -116.102 2359.05
-175.774 -115.784 2352.6
-197.111 -115.997 2356.93
-217.403 -115.613 2349.13
-238.144 -115.515 2347.12
-258.391 -115.212 2340.97
-280.165 -115.584 2348.53
-302.048 -115.946 2355.89
-323.085 -115.958 2356.13
-344.245 -116.009 2357.17
-364.477 -115.76 2352.11
-385.239 -115.697 2350.84
-406.798 -115.868 2354.31
-423.921 -114.821 2333.02
-449.434 -116.037 2357.74
-470.647 -116.085 2358.7
-488.987 -115.449 2345.8
-510.464 -115.577 2348.38
-534.812 -116.318 2363.46
-553.201 -115.757 2352.05
-576.805 -116.288 2362.84
-596.138 -115.951 2355.98
-615.313 -115.607 2349
-636.156 -115.589 2348.63
-657.755 -115.704 2350.98
-677.13 -115.434 2345.49
-701.496 -116.005 2357.09
-720.442 -115.673 2350.34
-751.549 -117.257 2382.53
-780.353 -118.404 2405.84
-802.847 -118.559 2408.97
-834.071 -119.96 2437.45
-866.356 -121.439 2467.51
-876.39 -119.804 2434.27
-901.059 -120.199 2442.31
-922.266 -120.125 2440.81
-945.915 -120.365 2445.69
-968.112 -120.414 2446.67
-991.389 -120.592 2450.29
-1014.28 -120.716 2452.82
-1033.65 -120.425 2446.9
-1046.54 -119.407 2426.21
-1082.01 -120.954 2457.64
-1109.28 -121.541 2469.58
-1136.26 -122.074 2480.4
-1141.77 -120.324 2444.85
-1207.67 -124.884 2537.5
-1202.05 -122.018 2479.26
-1217.21 -121.326 2465.19
-1239.73 -121.379 2466.27
-1256.29 -120.856 2455.66
-1265.26 -119.634 2430.82
-1327.57 -123.411 2507.58
-1356.31 -123.995 2519.43
-1420.64 -127.76 2595.94
-1445.16 -127.882 2598.41
-1573.35 -137.029 2784.27
0 0 0
1573.15 -187.788 3230.41
1471.34 -178.91 3077.69
1357.69 -168.227 2893.92
1248.33 -157.673 2712.36
1188.41 -153.071 2633.19
1203.95 -158.197 2721.38
1166.47 -156.424 2690.88
1120.01 -153.349 2637.98
1062.42 -148.584 2556.01
1054.17 -150.662 2591.76
1044.21 -152.583 2624.8
996.397 -148.934 2562.03
960.497 -146.937 2527.67
934.456 -146.388 2518.23
920.408 -147.737 2541.43
910.593 -149.85 2577.79
868.936 -146.698 2523.56
848.732 -147.096 2530.4
826.815 -147.21 2532.38
819.926 -150.082 2581.78
775.076 -145.97 2511.05
751.686 -145.776 2507.71
733.6 -146.63 2522.4
707.638 -145.914 2510.08
679.73 -144.737 2489.83
663.076 -145.957 2510.82
635.658 -144.811 2491.1
610.676 -144.157 2479.85
592.76 -145.184 2497.52
566.055 -144.055 2478.09
544.779 -144.271 2481.82
517.435 -142.831 2457.05
482.781 -139.157 2393.84
458.248 -138.195 2377.3
436.135 -137.905 2372.3
413.561 -137.432 2364.17
393.061 -137.635 2367.65
371.852 -137.598 2367.02
350.482 -137.493 2365.22
329.806 -137.666 2368.19
307.507 -137.137 2359.09
286.428 -137.115 2358.72
265.559 -137.198 2360.15
243.719 -136.751 2352.46
222.375 -136.524 2348.55
202.193 -137.037 2357.38
180.999 -136.904 2355.09
160.104 -136.992 2356.6
138.995 -136.895 2354.93
118.106 -137.019 2357.07
97.2529 -137.249 2361.02
76.0663 -137.003 2356.8
55.1137 -137.153 2359.37
33.8962 -136.422 2346.79
12.9517 -136.202 2343.01
-7.96869 -136.726 2352.02
-28.9246 -136.658 2350.85
-49.877 -136.638 2350.5
-71.1784 -137.303 2361.94
-91.8581 -136.739 2352.24
-112.787 -136.686 2351.33
-134.312 -137.26 2361.2
-154.887 -136.838 2353.94
-175.468 -136.521 2348.5
-196.768 -136.773 2352.83
-217.485 -136.609 2350.01
-238.536 -136.665 2350.98
-259.912 -136.884 2354.75
-280.742 -136.804 2353.37
-301.906 -136.886 2354.78
-321.713 -136.383 2346.12
-343.94 -136.904 2355.08
-364.002 -136.553 2349.05
-387.159 -137.338 2362.55
-405.759 -136.509 2348.3
-427.295 -136.701 2351.59
-447.545 -136.482 2347.83
-469.65 -136.824 2353.7
-489.985 -136.643 2350.59
-512.14 -136.963 2356.09
-533.467 -137.045 2357.51
-553.18 -136.722 2351.96
-575.362 -137.011 2356.92
-597.34 -137.232 2360.74
-614.785 -136.433 2346.98
-640.833 -137.532 2365.89
-658.002 -136.717 2351.86
-681.262 -137.178 2359.8
-700.619 -136.849 2354.15
-723.346 -137.179 2359.82
-748.219 -137.886 2371.97
-788.025 -141.229 2429.49
-816.709 -142.454 2450.56
-836.624 -142.126 2444.91
-860.696 -142.502 2451.39
-879.064 -141.939 2441.7
-904.828 -142.568 2452.53
-921.881 -141.828 2439.79
-946.243 -142.22 2446.53
-973.591 -143.033 2460.52
-996.225 -143.133 2462.24
-1013.87 -142.527 2451.82
-1028.96 -141.596 2435.8
-1056.01 -142.315 2448.16
-1083.19 -143.021 2460.31
-1094.52 -141.649 2436.71
-1110.03 -140.86 2423.13
-1151.89 -143.381 2466.51
-1187.03 -144.987 2494.13
-1185.9 -142.186 2445.96
-1234.87 -145.384 2500.96
-1235.22 -142.846 2457.3
-1267.19 -143.988 2476.95
-1276.31 -142.541 2452.05
-1325.67 -145.56 2503.99
-1314.15 -141.905 2441.12
-1382.72 -146.877 2526.65
-1359.2 -142.064 2443.85
-1458.3 -150.018 2580.67
0 0 0
0 0 0
0 0 0
0 0 0
1239.41 -180.557 2692.99
1248.22 -185.433 2765.71
1232.46 -186.782 2785.83
1195.69 -184.936 2758.31
1118.32 -176.601 2633.98
1069.58 -172.527 2573.23
1100.68 -181.435 2706.09
1027.85 -173.227 2583.66
1014.37 -174.875 2608.24
962.866 -169.891 2533.91
947.888 -171.267 2554.42
897.526 -166.159 2478.25
913.467 -173.379 2585.93
876.627 -170.695 2545.9
847.356 -169.381 2526.3
831.356 -170.721 2546.28
799.877 -168.868 2518.65
781.158 -169.68 2530.75
751.016 -167.985 2505.47
725.7 -167.298 2495.23
711.877 -169.302 2525.12
684.109 -168.011 2505.87
659.419 -167.415 2496.97
635.573 -166.999 2490.77
608.925 -165.79 2472.74
591.296 -167.038 2491.35
567.312 -166.518 2483.59
542.35 -165.657 2470.76
513.047 -163.341 2436.21
482.917 -160.545 2394.52
456.87 -158.911 2370.14
435.359 -158.773 2368.08
412.306 -158.03 2357
391.868 -158.262 2360.47
370.412 -158.087 2357.85
348.097 -157.502 2349.13
329.076 -158.428 2362.94
307.339 -158.084 2357.8
286.512 -158.191 2359.41
266.417 -158.752 2367.78
243.791 -157.772 2353.15
224.416 -158.908 2370.1
201.911 -157.835 2354.09
180.746 -157.681 2351.8
160.286 -158.183 2359.28
138.977 -157.871 2354.62
117.89 -157.747 2352.77
97.0347 -157.944 2355.72
76.0885 -158.062 2357.48
54.6637 -156.897 2340.11
34.0071 -157.86 2354.47
13.0107 -157.807 2353.68
-7.96764 -157.675 2351.71
-28.9822 -157.932 2355.53
-49.8493 -157.507 2349.2
-70.7782 -157.471 2348.66
-91.8461 -157.69 2351.93
-112.82 -157.696 2352.02
-133.955 -157.89 2354.91
-155.391 -158.339 2361.6
-176.56 -158.44 2363.12
-196.327 -157.397 2347.55
-217.733 -157.741 2352.69
-238.505 -157.606 2350.68
-259.222 -157.46 2348.5
-279.998 -157.368 2347.13
-301.106 -157.463 2348.55
-321.673 -157.281 2345.83
-341.734 -156.889 2339.98
-365.79 -158.271 2360.59
-385.497 -157.722 2352.41
-406.05 -157.559 2349.98
-425.638 -157.056 2342.47
-447.305 -157.331 2346.57
-467.251 -157.003 2341.68
-490.743 -157.844 2354.22
-509.748 -157.232 2345.09
-532.525 -157.785 2353.35
-553.117 -157.674 2351.69
-575.06 -157.942 2355.69
-593.846 -157.355 2346.93
-614.971 -157.406 2347.69
-636.848 -157.64 2351.18
-659.276 -157.991 2356.42
-678.145 -157.494 2349
-697.13 -157.053 2342.42
-723.856 -158.33 2361.48
-755.647 -160.612 2395.51
-792.248 -163.763 2442.51
-815.985 -164.157 2448.39
-843.64 -165.299 2465.41
-862.915 -164.782 2457.71
-879.308 -163.754 2442.38
-903.349 -164.166 2448.52
-923.549 -163.877 2444.2
-951.186 -164.89 2459.31
-967.247 -163.896 2444.49
-996.498 -165.131 2462.92
-1013 -164.247 2449.73
-1036.63 -164.53 2453.95
-1051.96 -163.512 2438.76
-1079.06 -164.328 2450.94
-1100.97 -164.337 2451.07
-1121.99 -164.214 2449.24
-1141.65 -163.902 2444.58
-1167.61 -164.49 2453.35
-1184.94 -163.86 2443.96
-1213.55 -164.787 2457.78
-1228.4 -163.845 2443.72
-1256.17 -164.629 2455.42
-1283.58 -165.34 2466.03
-1295.2 -164.027 2446.44
-1344.81 -167.489 2498.08
-1322.7 -162.052 2416.98
-1404.23 -169.282 2524.82
-1426.75 -169.282 2524.83
1326.64 -203.217 2675.22
1291.21 -201.411 2651.44
1245.73 -197.941 2605.76
1236.87 -200.269 2636.4
1179.11 -194.615 2561.98
1160.15 -195.268 2570.57
1125.26 -193.212 2543.5
1119.27 -196.137 2582.01
1079.51 -193.142 2542.58
1051.39 -192.145 2529.46
1029.42 -192.255 2530.9
1013.64 -193.55 2547.96
974.397 -190.322 2505.46
953.474 -190.605 2509.19
925.15 -189.387 2493.15
903.136 -189.432 2493.74
894.347 -192.323 2531.8
864.44 -190.705 2510.5
838.626 -189.928 2500.27
818.497 -190.431 2506.9
795.19 -190.203 2503.89
768.645 -189.164 2490.21
750.866 -190.285 2504.97
723.604 -188.998 2488.03
700.364 -188.713 2484.28
676.876 -188.34 2479.37
659.028 -189.565 2495.49
635.441 -189.167 2490.25
609.276 -187.945 2474.16
586.795 -187.81 2472.39
564.971 -187.883 2473.35
541.167 -187.276 2465.37
515.201 -185.839 2446.44
481.046 -181.19 2385.24
457.156 -180.156 2371.63
434.01 -179.329 2360.75
412.74 -179.233 2359.48
393.422 -180.019 2369.83
371.111 -179.447 2362.3
348.612 -178.711 2352.61
328.871 -179.384 2361.47
307.276 -179.069 2357.32
286.212 -179.04 2356.94
265.693 -179.374 2361.34
244.049 -178.941 2355.64
222.489 -178.494 2349.75
202.295 -179.164 2358.57
181.091 -178.99 2356.28
160.32 -179.256 2359.78
139.006 -178.902 2355.13
118.165 -179.14 2358.26
97.3426 -179.515 2363.19
76.0081 -178.892 2354.99
54.9085 -178.558 2350.59
33.8847 -178.209 2346
13.052 -179.361 2361.16
-7.96259 -178.529 2350.22
-29.0129 -179.123 2358.03
-50.0927 -179.323 2360.67
-70.9136 -178.753 2353.16
-91.9436 -178.849 2354.43
-112.844 -178.705 2352.53
-134.266 -179.302 2360.39
-155.162 -179.13 2358.12
-176.672 -179.623 2364.62
-196.619 -178.592 2351.04
-217.136 -178.227 2346.24
-238.758 -178.754 2353.17
-258.951 -178.212 2346.03
-280.649 -178.71 2352.59
-301.679 -178.742 2353.02
-322.557 -178.686 2352.27
-342.963 -178.391 2348.39
-363.731 -178.308 2347.3
-384.936 -178.436 2348.99
-405.97 -178.476 2349.51
-425.911 -178.055 2343.97
-447.965 -178.515 2350.03
-468.332 -178.293 2347.1
-490.037 -178.576 2350.84
-510.075 -178.254 2346.6
-532.203 -178.659 2351.93
-554.383 -179.05 2357.07
-574.716 -178.838 2354.28
-593.981 -178.32 2347.46
-616.628 -178.818 2354.02
-637.776 -178.863 2354.61
-658.888 -178.895 2355.03
-681.897 -179.424 2362
-700.706 -178.85 2354.44
-725.19 -179.716 2365.83
-745.909 -179.625 2364.65
-799.794 -187.307 2465.78
-819.303 -186.743 2458.35
-850.588 -188.823 2485.72
-859.453 -185.946 2447.85
-871.719 -183.929 2421.3
-915.274 -188.452 2480.84
-923.389 -185.637 2443.78
-963.615 -189.258 2491.45
-980.663 -188.266 2478.39
-1006.8 -189.025 2488.39
-1027.7 -188.789 2485.28
-1034.52 -186.03 2448.96
-1053.76 -185.574 2442.96
-1074.07 -185.319 2439.6
-1108.56 -187.474 2467.97
-1139.26 -188.916 2486.96
-1158.36 -188.416 2480.37
-1202.59 -191.947 2526.85
-1200.87 -188.146 2476.81
-1209.84 -186.129 2450.26
-1243.91 -187.976 2474.58
-1302.8 -193.444 2546.56
-1307.82 -190.864 2512.59
-1333.31 -191.306 2518.42
-1442.05 -203.483 2678.71
-1378.58 -191.357 2519.08
-1402.58 -191.567 2521.85
0 0 0
1278.48 -218.826 2578.1
1278.68 -222.867 2625.71
1223.07 -217.151 2558.37
1235.72 -223.567 2633.96
1164.25 -214.716 2529.68
1141.83 -214.741 2529.97
1129.83 -216.767 2553.84
1110.27 -217.396 2561.26
1058.99 -211.708 2494.24
1047.69 -213.942 2520.56
1018.27 -212.494 2503.5
1005.65 -214.562 2527.86
976.323 -213.081 2510.42
946.153 -211.341 2489.92
927.691 -212.197 2500
902.228 -211.453 2491.23
883.156 -212.207 2500.12
855.776 -210.953 2485.34
836.821 -211.763 2494.89
814.876 -211.841 2495.81
790.149 -211.18 2488.02
769.027 -211.471 2491.45
745.796 -211.183 2488.06
723.407 -211.123 2487.35
701.524 -211.212 2488.39
676.165 -210.225 2476.77
654.517 -210.365 2478.41
630.58 -209.753 2471.2
610.058 -210.274 2477.34
586.63 -209.794 2471.69
563.701 -209.463 2467.79
543.577 -210.189 2476.34
518.341 -208.916 2461.35
484.657 -203.976 2403.14
454.39 -200.083 2357.28
435.513 -201.071 2368.92
413.313 -200.548 2362.75
391.354 -200.091 2357.37
369.306 -199.534 2350.82
347.931 -199.296 2348.01
328.779 -200.382 2360.81
307.447 -200.198 2358.64
287.453 -200.922 2367.16
264.949 -199.866 2354.73
244.801 -200.56 2362.9
223.365 -200.229 2359
201.641 -199.545 2350.95
180.963 -199.857 2354.61
160.139 -200.069 2357.11
139.201 -200.181 2358.43
118.38 -200.53 2362.55
97.1914 -200.273 2359.52
76.1148 -200.169 2358.3
54.8927 -199.458 2349.91
33.9182 -199.322 2348.31
13.0483 -200.354 2360.48
-7.99068 -200.187 2358.51
-28.8819 -199.243 2347.38
-50.057 -200.228 2358.99
-70.9832 -199.929 2355.46
-91.7227 -199.361 2348.77
-113.146 -200.213 2358.82
-134.341 -200.458 2361.7
-155.444 -200.519 2362.42
-175.359 -199.214 2347.04
-196.646 -199.581 2351.37
-217.35 -199.342 2348.55
-238.188 -199.257 2347.55
-259.643 -199.661 2352.31
-280.452 -199.545 2350.94
-301.468 -199.581 2351.37
-322.196 -199.435 2349.64
-342.867 -199.273 2347.74
-364.089 -199.432 2349.61
-385.636 -199.742 2353.26
-406.368 -199.619 2351.82
-425.796 -198.9 2343.34
-448.403 -199.663 2352.33
-468.791 -199.414 2349.4
-489.703 -199.4 2349.23
-510.786 -199.454 2349.87
-534.262 -200.401 2361.03
-555.149 -200.342 2360.33
-574.802 -199.858 2354.63
-594.317 -199.362 2348.79
-615.712 -199.509 2350.52
-637.613 -199.805 2354
-658.452 -199.76 2353.47
-681.449 -200.352 2360.45
-698.258 -199.144 2346.21
-723.549 -200.355 2360.48
-749.324 -201.627 2375.47
-784.209 -205.214 2417.73
-810.268 -206.36 2431.24
-831.005 -206.127 2428.49
-863.201 -208.676 2458.52
-870.493 -205.228 2417.89
-907.454 -208.771 2459.64
-922.813 -207.295 2442.25
-961.938 -211.103 2487.11
-985.56 -211.414 2490.77
-989.736 -207.631 2446.21
-1009.55 -207.222 2441.39
-1040.1 -208.986 2462.17
-1068.14 -210.183 2476.27
-1076.24 -207.488 2444.53
-1134.46 -214.372 2525.62
-1147.73 -212.658 2505.43
-1149.67 -208.951 2461.75
-1191.61 -212.517 2503.77
-1214.53 -212.62 2504.99
-1243.14 -213.699 2517.7
-1282.61 -216.574 2551.57
-1289.35 -213.917 2520.27
-1343 -219.002 2580.17
-1302.7 -208.854 2460.61
0 0 0
0 0 0
0 0 0
0 0 0
1279.88 -242.077 2580.93
1262.59 -243.179 2592.68
1239.91 -243.264 2593.58
1197.26 -239.36 2551.96
1179.73 -240.426 2563.33
1137.8 -236.461 2521.05
1130.29 -239.634 2554.88
1103.59 -238.786 2545.84
1071.51 -236.714 2523.75
1042.77 -235.306 2508.74
1024.71 -236.3 2519.33
1006.06 -237.198 2528.91
978.18 -235.911 2515.19
951.515 -234.865 2504.03
926.7 -234.236 2497.33
911.434 -236.048 2516.65
881.54 -234.069 2495.55
853.225 -232.417 2477.93
838.76 -234.55 2500.67
812.748 -233.482 2489.29
795.913 -235.065 2506.17
773.172 -234.944 2504.88
744.969 -233.108 2485.3
720.099 -232.233 2475.97
698.848 -232.507 2478.9
673.045 -231.235 2465.34
656.576 -233.193 2486.21
633.313 -232.79 2481.92
607.461 -231.372 2466.79
583.891 -230.749 2460.15
563.943 -231.564 2468.85
544.021 -232.457 2478.37
518.359 -230.87 2461.44
484.879 -225.505 2404.25
456.871 -222.307 2370.15
435.54 -222.206 2369.07
414.369 -222.18 2368.79
393.336 -222.229 2369.31
371.803 -221.985 2366.71
349.851 -221.446 2360.97
329.348 -221.814 2364.9
307.594 -221.333 2359.77
286.269 -221.112 2357.41
265.855 -221.616 2362.78
244.2 -221.083 2357.09
223.378 -221.275 2359.14
201.994 -220.891 2355.05
180.744 -220.584 2351.77
160.485 -221.563 2362.21
139.913 -222.339 2370.49
117.689 -220.301 2348.76
97.1558 -221.229 2358.66
76.0547 -221.021 2356.44
55.0121 -220.888 2355.02
33.9489 -220.458 2350.44
13.038 -221.225 2358.61
-7.98774 -221.134 2357.64
-29.006 -221.118 2357.48
-49.9753 -220.899 2355.14
-70.9572 -220.849 2354.6
-92.0389 -221.061 2356.87
-113.152 -221.256 2358.95
-134.461 -221.714 2363.82
-154.668 -220.476 2350.62
-176.482 -221.55 2362.08
-197.653 -221.675 2363.41
-217.455 -220.388 2349.69
-238.403 -220.387 2349.68
-259.55 -220.554 2351.46
-280.116 -220.241 2348.12
-301.36 -220.467 2350.53
-321.946 -220.213 2347.82
-342.89 -220.22 2347.9
-363.046 -219.749 2342.88
-385.178 -220.461 2350.47
-406.904 -220.879 2354.92
-427.784 -220.819 2354.28
-448.434 -220.652 2352.5
-468.824 -220.377 2349.57
-489.738 -220.361 2349.4
-510.613 -220.33 2349.07
-529.465 -219.463 2339.83
-553.137 -220.584 2351.78
-575.79 -221.231 2358.68
-596.318 -221.045 2356.7
-616.014 -220.574 2351.67
-636.362 -220.36 2349.39
-657.701 -220.491 2350.79
-680.399 -221.056 2356.81
-701.16 -220.977 2355.96
-724.486 -221.687 2363.54
-754.478 -224.339 2391.81
-787.336 -227.674 2427.37
-817.25 -230.002 2452.19
-835.576 -229.032 2441.85
-855.994 -228.671 2438
-886.08 -230.846 2461.19
-907.857 -230.804 2460.73
-924.992 -229.611 2448.02
-942.949 -228.673 2438.02
-974.99 -231.115 2464.06
-994.295 -230.498 2457.47
-1011.54 -229.439 2446.18
-1032.04 -229.148 2443.08
-1052.82 -228.931 2440.77
-1083.55 -230.842 2461.14
-1111.26 -232.045 2473.97
-1117.51 -228.81 2439.48
-1144.7 -229.902 2451.13
-1170.72 -230.722 2459.87
-1199.4 -232.029 2473.8
-1204.85 -228.873 2440.15
-1225.41 -228.65 2437.77
-1282.18 -235.074 2506.27
-1292.93 -232.984 2483.98
-1315.42 -233.045 2484.63
-1337.86 -233.095 2485.16
-1427.7 -244.695 2608.84
-1444.08 -243.535 2596.47
0 0 0
1280.76 -265.27 2582.7
1248.19 -263.257 2563.1
1244.18 -267.307 2602.53
1237.43 -270.908 2637.59
1158.91 -258.632 2518.07
1136.98 -258.751 2519.23
1122.62 -260.633 2537.55
1104.37 -261.668 2547.63
1073.45 -259.684 2528.31
1047.35 -258.805 2519.75
1015.7 -256.485 2497.17
1012.3 -261.356 2544.59
972.391 -256.807 2500.31
950.439 -256.9 2501.2
929.456 -257.264 2504.75
903.277 -256.173 2494.13
881.522 -256.313 2495.5
861.636 -257.018 2502.36
834.624 -255.579 2488.34
813.346 -255.864 2491.12
789.863 -255.453 2487.12
765.221 -254.632 2479.12
744.661 -255.161 2484.27
722.302 -255.086 2483.55
700.987 -255.388 2486.49
678.005 -255.082 2483.51
655.79 -255.054 2483.23
632.305 -254.513 2477.97
609.819 -254.349 2476.37
585.939 -253.569 2468.78
565.25 -254.164 2474.57
542.931 -254.044 2473.4
521.824 -254.505 2477.89
482.312 -245.633 2391.51
456.866 -243.436 2370.12
435.175 -243.124 2367.08
414.192 -243.195 2367.77
393.33 -243.349 2369.28
372.878 -243.789 2373.55
350.721 -243.099 2366.84
328.931 -242.592 2361.9
307.718 -242.47 2360.71
287.583 -243.242 2368.23
265.85 -242.678 2362.74
243.99 -241.89 2355.07
223.561 -242.507 2361.07
202.67 -242.698 2362.94
181.427 -242.464 2360.66
160.145 -242.108 2357.19
139.089 -242.039 2356.52
118.234 -242.36 2359.64
96.826 -241.436 2350.65
76.053 -242.025 2356.38
55.1038 -242.289 2358.95
34.1062 -242.533 2361.33
13.0266 -242.044 2356.57
-7.95722 -241.229 2348.63
-29.0543 -242.54 2361.4
-49.953 -241.789 2354.09
-70.8058 -241.326 2349.58
-91.8815 -241.661 2352.84
-112.911 -241.773 2353.92
-134.402 -242.681 2362.77
-155.384 -242.55 2361.5
-175.663 -241.484 2351.11
-196.82 -241.723 2353.45
-216.993 -240.825 2344.7
-239.102 -242.044 2356.57
-259.982 -241.922 2355.38
-281.644 -242.492 2360.93
-300.471 -240.711 2343.59
-322.348 -241.446 2350.75
-344.18 -242.061 2356.73
-363.652 -241.04 2346.79
-384.37 -240.911 2345.54
-405.883 -241.268 2349.01
-427.425 -241.606 2352.31
-448.432 -241.624 2352.48
-467.849 -240.823 2344.68
-489.331 -241.108 2347.45
-512.937 -242.372 2359.76
-532.761 -241.821 2354.39
-553.366 -241.652 2352.75
-576.971 -242.758 2363.51
-593.635 -240.968 2346.09
-618.287 -242.433 2360.35
-638.449 -242.098 2357.09
-659.049 -241.945 2355.61
-679.578 -241.777 2353.97
-700.885 -241.887 2355.04
-721.286 -241.688 2353.1
-754.481 -245.665 2391.82
-791.017 -250.481 2438.71
-818.815 -252.347 2456.88
-835.572 -250.802 2441.84
-856.321 -250.503 2438.93
-879.668 -250.96 2443.38
-905.44 -252.07 2454.18
-932.381 -253.446 2467.58
-949.06 -252.032 2453.82
-969.863 -251.753 2451.1
-993.926 -252.314 2456.56
-1012.69 -251.534 2448.97
-1038.25 -252.44 2457.79
-1058.36 -252.012 2453.61
-1083.97 -252.882 2462.09
-1099.85 -251.494 2448.57
-1132.47 -253.913 2472.12
-1145.99 -252.04 2453.89
-1158.33 -249.982 2433.85
-1199.86 -254.182 2474.75
-1207.53 -251.187 2445.59
-1225.9 -250.485 2438.75
-1264.06 -253.782 2470.85
-1282.85 -253.142 2464.61
-1296.82 -251.589 2449.5
-1323.74 -252.558 2458.93
-1349.29 -253.239 2465.56
-1372.44 -253.455 2467.67
-1404.87 -255.351 2486.12
1423.45 -320.418 2870.45
1327.39 -304.264 2725.74
1331.2 -310.828 2784.55
1332.39 -317.019 2840.01
1192.11 -289.136 2590.22
1161.46 -287.267 2573.47
1136.63 -286.791 2569.2
1149.38 -295.975 2651.48
1084.25 -285.066 2553.75
1067.12 -286.581 2567.32
1034.36 -283.871 2543.05
1041.99 -292.374 2619.22
985.292 -282.803 2533.48
956.366 -280.941 2516.8
927.299 -278.947 2498.94
897.104 -276.508 2477.08
885.419 -279.794 2506.53
863.822 -280.038 2508.71
840.872 -279.844 2506.97
819.133 -280.053 2508.85
785.573 -276.119 2473.61
767.494 -277.557 2486.48
748.584 -278.771 2497.36
723.616 -277.734 2488.07
681.758 -269.943 2418.28
677.147 -276.874 2480.36
655.21 -276.949 2481.04
632.974 -276.898 2480.58
612.366 -277.582 2486.71
587.252 -276.198 2474.31
564.743 -275.979 2472.35
543.72 -276.498 2477
518.28 -274.719 2461.06
482.267 -266.931 2391.29
456.826 -264.545 2369.92
434.418 -263.769 2362.96
414.155 -264.282 2367.56
391.666 -263.355 2359.25
372.534 -264.707 2371.37
349.523 -263.299 2358.75
329.585 -264.175 2366.6
308.46 -264.153 2366.41
285.998 -262.9 2355.18
264.602 -262.505 2351.65
244.377 -263.304 2358.8
223.633 -263.642 2361.83
202.565 -263.629 2361.71
181.333 -263.374 2359.43
160.129 -263.099 2356.96
139.075 -263.024 2356.29
117.477 -261.709 2344.52
97.1437 -263.255 2358.36
76.398 -264.228 2367.07
55.1911 -263.738 2362.68
34.074 -263.338 2359.1
12.9979 -262.474 2351.36
-7.96655 -262.476 2351.38
-28.8557 -261.792 2345.26
-50.0535 -263.306 2358.82
-71.0982 -263.358 2359.28
-92.1827 -263.499 2360.55
-113.09 -263.177 2357.66
-134.049 -263.056 2356.58
-155.107 -263.136 2357.29
-175.498 -262.199 2348.9
-196.884 -262.792 2354.21
-217.889 -262.81 2354.38
-239.581 -263.581 2361.29
-259.958 -262.897 2355.16
-281.971 -263.847 2363.66
-301.582 -262.573 2352.25
-322.724 -262.712 2353.49
-343.144 -262.281 2349.63
-365.448 -263.257 2358.38
-384.66 -262.021 2347.3
-406.527 -262.627 2352.74
-425.968 -261.684 2344.29
-448.209 -262.468 2351.32
-459.838 -257.246 2304.53
-458.865 -245.722 2201.3
-509.518 -261.656 2344.03
-530.966 -261.926 2346.46
-536.938 -254.832 2282.9
-576.692 -263.703 2362.37
-601.888 -265.526 2378.71
-620.764 -264.532 2369.8
-639.967 -263.739 2362.7
-660.079 -263.358 2359.29
-680.64 -263.175 2357.65
-701.127 -262.975 2355.85
-723.286 -263.395 2359.62
-755.927 -267.501 2396.4
-786.965 -270.83 2426.22
-810.572 -271.492 2432.15
-835.83 -272.658 2442.59
-864.496 -274.847 2462.21
-863.771 -267.816 2399.22
-906.064 -274.14 2455.87
-926.688 -273.764 2452.51
-946.126 -273.064 2446.23
-966.142 -272.557 2441.7
-1007.29 -277.905 2489.6
-1017.19 -274.585 2459.86
-1037.03 -274.031 2454.9
-1058.31 -273.873 2453.48
-1083.51 -274.717 2461.05
-1107.14 -275.136 2464.79
-1132.83 -276.041 2472.91
-1146.79 -274.108 2455.59
-1182.24 -277.288 2484.08
-1185.92 -273.037 2445.99
-1224.67 -276.867 2480.31
-1253.13 -278.275 2492.92
-1253.6 -273.528 2450.39
-1297.05 -278.162 2491.91
-1311.23 -276.466 2476.71
-1372.77 -284.649 2550.02
-1396.08 -284.766 2551.07
-1441.59 -289.336 2592
-1459.2 -288.248 2582.26
0 0 0
1458.62 -361.049 2995.21
1380.69 -348.133 2888.06
0 0 0
1245.96 -326.335 2707.23
1194.41 -319.012 2646.48
1199.19 -326.745 2710.63
1266.99 -352.318 2922.78
1125.65 -319.588 2651.26
1093.66 -317.166 2631.16
1094.11 -324.253 2689.96
1092.87 -331.142 2747.11
1043.13 -323.317 2682.19
982.338 -311.619 2585.15
955.505 -310.39 2574.95
923.7 -307.445 2550.52
936.573 -319.598 2651.34
888.587 -311.075 2580.63
854.949 -307.254 2548.94
828.86 -306.013 2538.64
808.299 -306.8 2545.17
783.185 -305.854 2537.32
759.862 -305.572 2534.98
731.257 -303.084 2514.34
708.335 -302.868 2512.55
685.136 -302.516 2509.63
661.179 -301.794 2503.64
638.26 -301.512 2501.3
622.463 -304.696 2527.71
594.711 -302.047 2505.74
568.175 -299.833 2487.38
544.681 -299.11 2481.37
516.34 -295.551 2451.85
482.186 -288.203 2390.89
458.068 -286.451 2376.36
436.143 -285.968 2372.35
413.573 -284.99 2364.24
392.416 -284.933 2363.77
372.625 -285.919 2371.95
349.464 -284.282 2358.36
329.529 -285.226 2366.2
307.637 -284.49 2360.09
286.907 -284.8 2362.66
265.668 -284.614 2361.12
244.334 -284.286 2358.39
223.313 -284.293 2358.45
202.36 -284.397 2359.32
181.225 -284.241 2358.03
160.639 -285.018 2364.47
139.401 -284.699 2361.82
118.251 -284.476 2359.98
97.0856 -284.112 2356.95
76.2881 -284.921 2363.67
55.0884 -284.273 2358.29
34.1683 -285.158 2365.63
13.0285 -284.106 2356.9
-7.99541 -284.468 2359.9
-28.9728 -283.85 2354.78
-50.0445 -284.287 2358.4
-70.9061 -283.624 2352.91
-92.1663 -284.495 2360.13
-113.451 -285.104 2365.18
-134.308 -284.614 2361.12
-154.95 -283.864 2354.9
-176.355 -284.525 2360.38
-197.181 -284.209 2357.76
-218.309 -284.349 2358.92
-239.439 -284.466 2359.89
-260.458 -284.442 2359.69
-280.746 -283.683 2353.4
-301.91 -283.854 2354.82
-322.131 -283.174 2349.17
-344.236 -284.131 2357.11
-363.867 -283.054 2348.18
-386.204 -284.085 2356.73
-406.8 -283.794 2354.32
-427.5 -283.601 2352.72
-447.024 -282.683 2345.1
-458.998 -277.286 2300.32
-440.785 -254.893 2114.56
-467.675 -259.351 2151.54
-534.834 -284.908 2363.55
-519.364 -266.179 2208.18
-524.788 -259.135 2149.75
-636.394 -303.173 2515.08
-640.306 -294.654 2444.41
-641.955 -285.689 2370.03
-660.256 -284.47 2359.92
-682.753 -285.078 2364.97
-701.886 -284.287 2358.4
-724.066 -284.74 2362.16
-759.707 -290.312 2408.39
-791.755 -294.242 2440.99
-823.02 -297.679 2469.5
-841.177 -296.319 2458.22
-860.418 -295.4 2450.6
-883.185 -295.707 2453.14
-901.809 -294.646 2444.34
-928.317 -296.15 2456.82
-951.02 -296.399 2458.89
-968.213 -294.958 2446.93
-987.4 -294.175 2440.43
-1014.02 -295.593 2452.2
-1035.35 -295.441 2450.94
-1060.94 -296.483 2459.58
-1074.57 -294.212 2440.74
-1098.86 -294.891 2446.37
-1123.59 -295.658 2452.74
-1167.7 -301.399 2500.36
-1177.84 -298.32 2474.82
-1213.56 -301.717 2503
-1205.18 -294.222 2440.82
-1227.99 -294.474 2442.91
-1291.07 -304.206 2523.65
-1281.32 -296.736 2461.68
-1300.87 -296.191 2457.16
-1339.63 -299.963 2488.45
-1395.46 -307.374 2549.93
-1452.07 -314.716 2610.84
-1453.66 -310.09 2572.46
1470.46 -383.873 2965.24
1386 -368.449 2846.09
1388.45 -375.984 2904.3
1419.51 -391.7 3025.69
1275.56 -358.797 2771.53
1210.48 -347.217 2682.08
1169.96 -342.36 2644.56
1169.45 -349.247 2697.77
1140.9 -347.877 2687.18
1055.28 -328.673 2538.84
1048.19 -333.62 2577.05
1047.42 -340.847 2632.88
992.473 -330.369 2551.94
983.863 -335.188 2589.16
971.504 -338.93 2618.07
930.577 -332.643 2569.51
904.579 -331.512 2560.77
877.374 -329.867 2548.06
865.152 -333.918 2579.36
832.35 -330.031 2549.33
807.493 -329.163 2542.63
778.888 -326.674 2523.4
751.687 -324.643 2507.71
734.396 -326.899 2525.13
705.191 -323.826 2501.4
686.265 -325.427 2513.76
664.301 -325.646 2515.46
638.829 -324.102 2503.53
613.753 -322.653 2492.34
584.929 -319.052 2464.52
568.025 -321.925 2486.72
539.431 -318.137 2457.46
516.206 -317.329 2451.22
481.874 -309.32 2389.34
458.334 -307.818 2377.74
436.039 -307.046 2371.78
414.158 -306.503 2367.58
392.321 -305.935 2363.2
371.457 -306.104 2364.51
350.834 -306.505 2367.6
329.585 -306.375 2366.6
308.715 -306.604 2368.37
287.434 -306.427 2367
266.156 -306.227 2365.46
244.682 -305.748 2361.75
223.351 -305.372 2358.85
202.394 -305.484 2359.72
180.799 -304.548 2352.49
160.329 -305.509 2359.91
138.84 -304.525 2352.31
118.023 -304.927 2355.41
96.612 -303.638 2345.46
76.1085 -305.275 2358.1
54.9817 -304.708 2353.72
34.0163 -304.887 2355.1
13.0087 -304.657 2353.33
-7.97321 -304.66 2353.35
-28.9899 -305.024 2356.16
-50.0949 -305.621 2360.77
-71.2167 -305.937 2363.22
-92.0266 -305.075 2356.55
-113.327 -305.856 2362.59
-134.161 -305.331 2358.54
-154.455 -303.887 2347.38
-176.163 -305.237 2357.81
-196.718 -304.514 2352.23
-217.797 -304.665 2353.39
-238.779 -304.663 2353.38
-260.829 -305.915 2363.05
-279.737 -303.571 2344.94
-301.08 -304.011 2348.34
-322.054 -304.045 2348.6
-343.006 -304.057 2348.69
-363.933 -304.045 2348.6
-385.15 -304.264 2350.29
-405.522 -303.828 2346.92
-425.095 -302.864 2339.48
-447.85 -304.153 2349.43
-466.084 -302.392 2335.84
-470.891 -292.444 2258.99
-476.246 -283.638 2190.97
-506.248 -289.626 2237.22
-540.63 -297.572 2298.6
-518.832 -275.144 2125.36
-606.288 -310.194 2396.1
-669.82 -331.034 2557.08
-671.91 -321.137 2480.63
-670.546 -310.272 2396.7
-681.786 -305.73 2361.62
-701.461 -305.129 2356.98
-725.666 -306.477 2367.38
-750.887 -308.165 2380.43
-788.518 -314.714 2431.01
-816.871 -317.308 2451.05
-843.242 -319.017 2464.25
-868.126 -320.091 2472.55
-885.016 -318.237 2458.23
-906.434 -318.063 2456.88
-928.477 -318.11 2457.24
-957.632 -320.535 2475.98
-968.023 -316.712 2446.45
-993.543 -317.899 2455.61
-1022.56 -320.128 2472.84
-1041.34 -319.128 2465.11
-1068.21 -320.596 2476.45
-1091.59 -320.977 2479.39
-1106.81 -318.993 2464.07
-1134.15 -320.511 2475.79
-1151.93 -319.322 2466.61
-1177.63 -320.33 2474.4
-1195.58 -319.233 2465.92
-1229.62 -322.392 2490.32
-1255.02 -323.215 2496.68
-1272.3 -321.956 2486.95
-1313.23 -326.622 2522.99
-1304.87 -319.075 2464.7
-1342.72 -322.894 2494.2
-1407.63 -332.989 2572.18
-1422.84 -331.189 2558.27
-1418.72 -325.02 2510.62
1291.83 -360.467 2605.02
1256.07 -356.907 2579.3
1221.91 -353.676 2555.95
1234.81 -364.202 2632.01
1174.76 -353.203 2552.53
1143.58 -350.621 2533.87
1128.28 -352.899 2550.33
1101.22 -351.519 2540.36
1071.15 -349.101 2522.88
1046.61 -348.422 2517.98
1021.35 -347.464 2511.06
1023.26 -355.918 2572.15
978.878 -348.285 2516.99
955.023 -347.77 2513.27
932.551 -347.746 2513.09
903.272 -345.12 2494.12
887.121 -347.504 2511.34
864.185 -347.285 2509.76
838.384 -345.873 2499.55
823.466 -348.995 2522.12
793.728 -345.835 2499.28
772.79 -346.438 2503.64
746.893 -344.788 2491.72
718.652 -341.922 2471
708.728 -347.864 2513.95
681.861 -345.607 2497.63
660.535 -346.101 2501.2
633.714 -343.649 2483.49
616.865 -346.624 2504.98
589.314 -343.582 2483
565.846 -342.777 2477.18
542.227 -341.81 2470.19
513.993 -337.729 2440.7
484.073 -332.132 2400.25
459.316 -329.722 2382.84
434.111 -326.741 2361.3
414.712 -328.049 2370.75
393.821 -328.255 2372.23
372.262 -327.895 2369.63
350.577 -327.374 2365.87
329.206 -327.098 2363.88
308.871 -327.885 2369.56
286.146 -326.064 2356.4
265.626 -326.666 2360.75
245.215 -327.517 2366.9
223.745 -326.979 2363.01
202.835 -327.235 2364.87
181.12 -326.1 2356.66
160.545 -326.989 2363.09
139.787 -327.718 2368.35
117.984 -325.82 2354.64
97.192 -326.498 2359.54
76.2431 -326.877 2362.27
54.9636 -325.586 2352.94
33.9049 -324.817 2347.39
13.0592 -326.902 2362.45
-7.99742 -326.631 2360.5
-29.0656 -326.882 2362.31
-50.0782 -326.56 2359.99
-70.9543 -325.802 2354.51
-92.0735 -326.251 2357.75
-113.147 -326.401 2358.84
-134.454 -327.073 2363.69
-155.445 -326.898 2362.43
-175.957 -325.878 2355.06
-196.737 -325.517 2352.45
-218.001 -325.951 2355.58
-238.702 -325.541 2352.62
-259.874 -325.787 2354.4
-281.174 -326.145 2356.99
-301.866 -325.797 2354.47
-322.625 -325.562 2352.77
-342.469 -324.488 2345.01
-363.971 -325.019 2348.85
-386.312 -326.201 2357.39
-406.578 -325.598 2353.04
-426.738 -324.974 2348.52
-448.828 -325.81 2354.56
-468.273 -324.736 2346.8
-488.965 -324.583 2345.69
-500.13 -318.376 2300.84
-521.868 -319.125 2306.25
-549.559 -323.319 2336.56
-569.966 -323.078 2334.82
-591.275 -323.347 2336.76
-637.187 -336.594 2432.5
-668.584 -341.554 2468.35
-679.964 -336.299 2430.36
-684.072 -327.881 2369.53
-703.249 -326.975 2362.98
-725.468 -327.495 2366.74
-749.489 -328.775 2375.99
-789.822 -336.944 2435.03
-817.575 -339.453 2453.16
-855.197 -345.822 2499.19
-859.663 -338.801 2448.45
-878.049 -337.477 2438.88
-910.646 -341.547 2468.29
-926.822 -339.412 2452.86
-957.011 -342.388 2474.37
-989.3 -345.965 2500.22
-996.259 -340.722 2462.33
-1043.52 -349.189 2523.52
-1047.64 -343.169 2480.02
-1058.9 -339.689 2454.87
-1086.12 -341.363 2466.96
-1109.38 -341.755 2469.8
-1152.47 -348.118 2515.78
-1171.4 -347.08 2508.28
-1194.84 -347.395 2510.55
-1225.62 -349.789 2527.86
-1248.23 -349.81 2528.01
-1281.03 -352.636 2548.43
-1285.58 -347.721 2512.91
-1330.81 -353.788 2556.76
-1302.28 -340.372 2459.81
-1394.67 -358.484 2590.69
0 0 0
0 0 0
0 0 0
1307.27 -388.278 2636.16
1258.27 -380.569 2583.82
1213.4 -373.841 2538.14
1231.86 -386.742 2625.72
1177.28 -376.766 2558
1136.28 -370.828 2517.68
1120.28 -372.974 2532.25
1113.46 -378.328 2568.6
1072.33 -372.007 2525.68
1042.83 -369.533 2508.89
1026.6 -371.754 2523.96
1002.02 -370.984 2518.74
974.942 -369.235 2506.87
956.443 -370.728 2517
931.87 -369.882 2511.26
914.079 -371.753 2523.96
889.764 -370.997 2518.83
857.093 -366.628 2489.16
841.222 -369.404 2508.01
821.614 -370.646 2516.45
792.527 -367.562 2495.5
768.403 -366.667 2489.43
746.605 -366.863 2490.76
719.484 -364.374 2473.86
708.714 -370.271 2513.9
681.329 -367.588 2495.68
654.961 -365.292 2480.09
633.461 -365.645 2482.49
615.192 -367.957 2498.19
588.16 -365.004 2478.14
566.277 -365.14 2479.07
544.128 -365.109 2478.85
520.721 -364.196 2472.65
483.688 -353.251 2398.34
456.516 -348.827 2368.31
435.913 -349.238 2371.1
414.55 -349.051 2369.83
393.991 -349.556 2373.26
372.73 -349.461 2372.61
351.019 -348.907 2368.85
329.895 -348.903 2368.82
307.981 -348.006 2362.73
288.299 -349.685 2374.13
265.742 -347.865 2361.77
245.422 -348.914 2368.9
224.028 -348.488 2366
203.007 -348.615 2366.87
181.957 -348.715 2367.55
160.212 -347.335 2358.18
139.438 -347.963 2362.44
118.035 -346.964 2355.66
97.0302 -346.957 2355.61
76.18 -347.65 2360.32
55.0106 -346.861 2354.96
34.1341 -348.083 2363.26
13.032 -347.239 2357.53
-8.02432 -348.846 2368.43
-29.0415 -347.656 2360.36
-50.0158 -347.168 2357.05
-71.0149 -347.09 2356.52
-92.3449 -348.296 2364.7
-113.196 -347.582 2359.86
-134.455 -348.151 2363.72
-154.862 -346.657 2353.57
-176.108 -347.172 2357.07
-196.988 -346.934 2355.45
-218.643 -347.975 2362.52
-239.206 -347.248 2357.59
-259.337 -346.062 2349.53
-280.594 -346.443 2352.12
-301.999 -346.942 2355.51
-322.499 -346.403 2351.85
-342.766 -345.695 2347.04
-364.285 -346.26 2350.88
-385.683 -346.653 2353.55
-406.928 -346.876 2355.06
-429.053 -347.79 2361.27
-445.693 -344.38 2338.12
-468.873 -346.103 2349.81
-488.986 -345.511 2345.8
-510.466 -345.894 2348.4
-533.701 -347.389 2358.54
-552.989 -346.299 2351.14
-574.928 -346.889 2355.15
-598.594 -348.442 2365.69
-620.387 -348.836 2368.37
-640.887 -348.501 2366.09
-660.237 -347.582 2359.85
-681.36 -347.624 2360.14
-699.618 -346.246 2350.78
-726.381 -349.035 2369.72
-748.339 -349.422 2372.35
-787.401 -357.555 2427.57
-818.221 -361.611 2455.1
-843.337 -363 2464.53
-863.956 -362.432 2460.67
-890.163 -364.178 2472.53
-914.787 -365.207 2479.52
-932.811 -363.616 2468.71
-957.399 -364.597 2475.38
-977.294 -363.788 2469.88
-1010.8 -367.967 2498.26
-1028.01 -366.166 2486.03
-1043.44 -363.817 2470.08
-1056.21 -360.659 2448.64
-1095.76 -366.584 2488.87
-1127.72 -369.789 2510.62
-1147.56 -368.97 2505.07
-1194.94 -376.868 2558.69
-1170.19 -362.15 2458.76
-1234.75 -375.103 2546.71
-1269.36 -378.652 2570.8
-1250.81 -366.501 2488.3
-1254.95 -361.307 2453.04
-1351.47 -382.431 2596.45
-1337.19 -372.018 2525.76
0 0 0
0 0 0
0 0 0
0 0 0
1374.51 -432.964 2771.76
1252.59 -401.782 2572.14
1255.65 -410.277 2626.52
1217.48 -405.365 2595.08
1164.81 -395.342 2530.91
1143.99 -395.943 2534.76
1136.66 -401.335 2569.28
1113.79 -401.349 2569.36
1070.36 -393.797 2521.02
1043.93 -392.315 2511.53
1029.16 -395.24 2530.26
999.039 -392.272 2511.26
969.157 -389.262 2491.99
947.602 -389.535 2493.74
934.227 -393.264 2517.61
915.03 -394.666 2526.58
888.386 -392.845 2514.93
860.587 -390.406 2499.31
836.76 -389.687 2494.71
827.078 -395.696 2533.18
794.268 -390.667 2500.99
781.185 -395.331 2530.84
745.414 -388.449 2486.78
722.748 -388.183 2485.08
698.99 -387.296 2479.4
675.802 -386.677 2475.44
653.645 -386.626 2475.11
627.051 -383.855 2457.37
614.425 -389.744 2495.07
587.652 -386.764 2476
567.546 -388.111 2484.62
542.805 -386.269 2472.83
514.969 -381.975 2445.34
483.074 -374.158 2395.29
457.804 -370.987 2374.99
437.5 -371.727 2379.73
414.529 -370.161 2369.71
394.131 -370.848 2374.1
373.169 -371.051 2375.41
351.144 -370.159 2369.7
330.149 -370.308 2370.65
308.347 -369.51 2365.54
287.209 -369.449 2365.15
266.279 -369.667 2366.55
246.018 -370.932 2374.65
223.921 -369.406 2364.87
202.656 -369.078 2362.78
181.718 -369.338 2364.44
160.269 -368.492 2359.02
139.08 -368.078 2356.37
118.324 -368.869 2361.44
96.9022 -367.473 2352.5
76.0794 -368.208 2357.2
55.0994 -368.451 2358.76
33.932 -366.969 2349.27
13.053 -368.852 2361.33
-7.97354 -367.621 2353.45
-28.9667 -367.75 2354.27
-49.8868 -367.234 2350.97
-70.8914 -367.46 2352.42
-92.1074 -368.43 2358.62
-113.425 -369.369 2364.64
-133.661 -367.044 2349.75
-154.594 -367.003 2349.49
-176.244 -368.473 2358.9
-197.717 -369.297 2364.18
-218.356 -368.555 2359.43
-238.893 -367.786 2354.5
-259.649 -367.451 2352.36
-280.579 -367.395 2352
-300.601 -366.24 2344.6
-322.886 -367.813 2354.67
-344.036 -367.979 2355.74
-363.815 -366.745 2347.84
-386.784 -368.687 2360.27
-407.079 -368.009 2355.93
-428.504 -368.37 2358.24
-447.9 -367.035 2349.7
-467.889 -366.283 2344.88
-489.98 -367.171 2350.56
-514.021 -369.387 2364.75
-533.465 -368.255 2357.5
-553.653 -367.703 2353.97
-576.321 -368.778 2360.85
-597.122 -368.625 2359.87
-615.86 -367.252 2351.09
-638.804 -368.395 2358.4
-662.09 -369.657 2366.48
-681.625 -368.81 2361.06
-705.255 -370.164 2369.72
-721.733 -367.794 2354.55
-757.554 -375.137 2401.56
-794.087 -382.419 2448.18
-812.867 -380.991 2439.04
-834.65 -381.008 2439.14
-862.937 -383.917 2457.77
-884.762 -383.879 2457.53
-902.76 -382.222 2446.92
-922.286 -381.275 2440.86
-951.298 -384.203 2459.6
-970.713 -383.211 2453.25
-996.282 -384.638 2462.38
-1013.99 -383.034 2452.12
-1038.8 -384.124 2459.1
-1069.93 -387.458 2480.44
-1079.78 -383.106 2452.58
-1102.95 -383.558 2455.47
-1128.16 -384.689 2462.72
-1146.29 -383.411 2454.53
-1176.58 -386.17 2472.19
-1203.18 -387.638 2481.59
-1227.66 -388.383 2486.36
-1229.46 -382.054 2445.84
-1264.46 -386.08 2471.62
-1281 -384.432 2461.07
-1326.53 -391.392 2505.63
-1328.95 -385.612 2468.62
-1430.68 -408.365 2614.28
-1450.54 -407.397 2608.09
-1459.04 -403.318 2581.97
1278.47 -425.698 2578.09
1267.63 -429.814 2603.02
1217.53 -420.528 2546.78
1226.59 -431.706 2614.48
1168.84 -419.352 2539.66
1139.4 -416.865 2524.6
1126.92 -420.609 2547.28
1108.94 -422.408 2558.17
1065.99 -414.578 2510.75
1044.58 -414.966 2513.1
1033.88 -419.717 2541.87
1020.48 -423.563 2565.16
978.367 -415.391 2515.67
954.166 -414.621 2511.01
924.826 -411.528 2492.28
919.281 -419.131 2538.32
884.648 -413.521 2504.34
860.475 -412.636 2498.99
834.765 -410.948 2488.76
822.046 -415.737 2517.77
797.146 -414.462 2510.05
771.156 -412.53 2498.35
749.279 -412.75 2499.68
724.299 -411.22 2490.41
700.229 -410.128 2483.8
677.003 -409.474 2479.84
652.035 -407.687 2469.02
635.75 -411.394 2491.46
611.49 -410.022 2483.16
588.698 -409.568 2480.41
567.672 -410.355 2485.17
539.118 -405.543 2456.03
517.128 -405.471 2455.59
483.791 -396.101 2398.85
458.122 -392.434 2376.64
437.088 -392.574 2377.49
415.158 -391.882 2373.3
394.566 -392.447 2376.72
373.12 -392.179 2375.09
349.652 -389.624 2359.62
329.833 -391.069 2368.38
308.689 -391.034 2368.16
287.29 -390.646 2365.82
267.015 -391.848 2373.09
245.882 -391.887 2373.33
223.89 -390.437 2364.55
202.628 -390.091 2362.45
182.448 -391.989 2373.95
160.314 -389.633 2359.68
139.235 -389.522 2359.01
118.604 -390.845 2367.02
97.2545 -389.86 2361.05
76.419 -390.961 2367.72
55.1147 -389.59 2359.42
34.0842 -389.654 2359.8
13.0348 -389.362 2358.03
-8.00253 -390.017 2362
-29.0841 -390.316 2363.82
-50.1103 -389.934 2361.5
-71.1194 -389.684 2359.99
-92.2101 -389.893 2361.25
-113.362 -390.234 2363.32
-134.148 -389.406 2358.31
-155.739 -390.826 2366.9
-176.367 -389.776 2360.54
-197.772 -390.484 2364.83
-217.781 -388.566 2353.21
-238.762 -388.566 2353.21
-260.59 -389.832 2360.88
-281.128 -389.125 2356.6
-300.565 -387.097 2344.32
-323.784 -389.888 2361.22
-344.136 -389.096 2356.43
-365.132 -389.082 2356.34
-386.418 -389.361 2358.03
-407.535 -389.451 2358.57
-428.278 -389.19 2357
-448.221 -388.262 2351.38
-470.545 -389.387 2358.19
-490.13 -388.247 2351.28
-512.916 -389.631 2359.67
-533.41 -389.234 2357.26
-554.277 -389.128 2356.62
-575.326 -389.154 2356.78
-596.338 -389.154 2356.77
-618.558 -389.915 2361.38
-640.812 -390.646 2365.81
-659.902 -389.464 2358.65
-678.554 -388.104 2350.42
-700.686 -388.757 2354.37
-723.416 -389.693 2360.04
-754.51 -394.956 2391.91
-798.568 -406.528 2462
-818.403 -405.48 2455.65
-838.403 -404.566 2450.11
-859.243 -404.093 2447.25
-885.674 -406.208 2460.06
-902.674 -404 2446.69
-923.601 -403.612 2444.34
-949.783 -405.486 2455.69
-974.629 -406.717 2463.14
-986.556 -402.623 2438.34
-1015.04 -405.317 2454.66
-1039.87 -406.468 2461.64
-1059.27 -405.491 2455.72
-1080.91 -405.394 2455.13
-1104.09 -405.872 2458.02
-1127.26 -406.324 2460.76
-1152.51 -407.492 2467.83
-1162.49 -403.321 2442.58
-1196.21 -407.388 2467.21
-1206.13 -403.351 2442.76
-1240.53 -407.495 2467.85
-1252.24 -404.172 2447.73
-1288.27 -408.679 2475.03
-1316.28 -410.535 2486.26
-1347.68 -413.365 2503.4
-1355.01 -408.844 2476.02
-1372.49 -407.479 2467.76
-1507.64 -440.541 2667.99
1426.65 -500.686 2876.89
1359.98 -486.027 2792.66
1279.56 -465.814 2676.52
1257.83 -466.606 2681.07
1196.33 -452.388 2599.38
1164.82 -449.175 2580.92
1160.29 -456.448 2622.71
1161.37 -466.266 2679.12
1098.23 -450.179 2586.68
1053.12 -440.948 2533.64
1029.6 -440.547 2531.34
1027.21 -449.377 2582.08
976.756 -437.1 2511.53
955.041 -437.41 2513.31
947.32 -444.298 2552.89
921.444 -442.801 2544.29
895.322 -441.108 2534.56
868.337 -438.89 2521.82
844.328 -438.099 2517.27
816.053 -434.991 2499.41
795.482 -435.93 2504.81
773.901 -436.353 2507.24
746.568 -433.462 2490.63
727.723 -435.474 2502.19
698.739 -431.353 2478.51
678.674 -432.649 2485.96
657.433 -433.258 2489.46
633.409 -432.011 2482.29
616.065 -435.394 2501.73
590.383 -432.918 2487.5
567.757 -432.577 2485.54
544.703 -431.869 2481.47
518.025 -428.106 2459.85
483.887 -417.572 2399.33
458.592 -414.048 2379.08
435.932 -412.676 2371.2
414.226 -412.115 2367.97
393.678 -412.707 2371.37
372.126 -412.253 2368.77
351.027 -412.277 2368.9
330.445 -412.95 2372.77
309.007 -412.573 2370.61
287.468 -411.995 2367.28
266.738 -412.577 2370.63
244.915 -411.424 2364
223.099 -410.066 2356.2
203.091 -412.092 2367.84
181.503 -411.013 2361.64
161.214 -412.98 2372.94
139.322 -410.81 2360.47
118.332 -411.003 2361.58
97.0714 -410.137 2356.61
76.2433 -411.124 2362.28
55.1259 -410.709 2359.89
34.0483 -410.262 2357.32
13.0755 -411.669 2365.41
-7.98744 -410.301 2357.55
-29.0171 -410.445 2358.37
-49.9113 -409.357 2352.12
-71.1041 -410.637 2359.48
-92.2671 -411.199 2362.71
-113.668 -412.415 2369.7
-134.007 -410.003 2355.84
-154.671 -409.102 2350.66
-176.33 -410.735 2360.04
-197.73 -411.481 2364.33
-219.371 -412.536 2370.39
-238.912 -409.804 2354.69
-261.293 -411.99 2367.25
-281.771 -411.075 2361.99
-302.01 -409.961 2355.59
-324.656 -412.047 2367.58
-345.207 -411.382 2363.76
-364.759 -409.672 2353.93
-386.662 -410.644 2359.52
-406.115 -409.048 2350.35
-428.021 -409.959 2355.58
-449.984 -410.837 2360.63
-467.951 -408.15 2345.19
-491.652 -410.481 2358.58
-512.614 -410.428 2358.28
-533.534 -410.346 2357.81
-554.181 -410.069 2356.22
-574.06 -409.264 2351.59
-596.239 -410.098 2356.38
-616.707 -409.739 2354.32
-639.16 -410.678 2359.72
-658.469 -409.602 2353.54
-682.282 -411.308 2363.34
-705.647 -412.649 2371.04
-726.49 -412.48 2370.07
-756.468 -417.361 2398.12
-793.547 -425.784 2446.52
-812.639 -424.364 2438.35
-836.659 -425.523 2445.01
-863.674 -428.108 2459.87
-879.505 -425.159 2442.92
-903.212 -426.068 2448.14
-925.899 -426.464 2450.42
-940.019 -422.987 2430.44
-958.132 -421.422 2421.45
-1009.74 -434.337 2495.66
-1014.14 -426.823 2452.48
-1041.65 -429.146 2465.83
-1067.34 -430.642 2474.42
-1083.55 -428.329 2461.13
-1103.95 -427.732 2457.71
-1131.24 -429.773 2469.43
-1163.23 -433.491 2490.8
-1172.55 -428.779 2463.72
-1204.69 -432.43 2484.7
-1219.57 -429.868 2469.98
-1300.31 -450.195 2586.78
-1277.77 -434.684 2497.65
-1320.08 -441.383 2536.14
-1353.15 -444.821 2555.9
-1357.38 -438.821 2521.42
-1415.64 -450.2 2586.81
-1471.85 -460.574 2646.41
-1457.8 -448.977 2579.78
0 0 0
1549.66 -582.187 3182.17
1437.52 -550.131 3006.95
1425.1 -555.739 3037.61
1311.51 -521.353 2849.65
1270.44 -515.002 2814.95
1211.46 -500.992 2738.37
1267.32 -534.873 2923.55
1182.35 -509.487 2784.8
1096.77 -482.748 2638.65
1091.01 -490.738 2682.32
1077.95 -495.733 2709.62
1018.32 -479.045 2618.4
992.614 -477.908 2612.19
964.891 -475.722 2600.24
971.194 -490.618 2681.66
922.318 -477.687 2610.99
872.27 -463.464 2533.24
869.16 -474.087 2591.31
839.682 -470.515 2571.78
810.766 -467.067 2552.93
779.782 -462.193 2526.3
771.246 -470.731 2572.96
742.364 -466.993 2552.53
719.117 -466.676 2550.8
697.409 -467.369 2554.59
664.53 -460.37 2516.33
639.794 -458.72 2507.31
612.814 -455.284 2488.53
590.884 -455.483 2489.62
573.72 -459.514 2511.65
547.911 -456.667 2496.09
520.505 -452.192 2471.63
481.224 -436.548 2386.12
461.077 -437.618 2391.97
435.815 -433.701 2370.56
413.267 -432.225 2362.49
393.41 -433.554 2369.76
372.024 -433.254 2368.12
349.92 -432.032 2361.44
329.809 -433.27 2368.21
308.666 -433.23 2367.99
287.743 -433.515 2369.55
266.222 -432.874 2366.04
245.251 -433.094 2367.24
224.428 -433.64 2370.23
203.536 -434.155 2373.04
180.998 -430.868 2355.08
160.567 -432.393 2363.41
140.151 -434.426 2374.52
118.051 -431.035 2355.99
97.5698 -433.362 2368.71
76.475 -433.499 2369.46
55.018 -430.904 2355.27
34.1237 -432.234 2362.54
13.0282 -431.192 2356.85
-7.99846 -431.916 2360.8
-29.0208 -431.526 2358.67
-49.9179 -430.385 2352.43
-71.1428 -431.908 2360.76
-91.9716 -430.88 2355.14
-113.257 -431.977 2361.14
-134.472 -432.501 2364
-155.402 -432.094 2361.78
-176.573 -432.372 2363.29
-197.345 -431.719 2359.73
-218.401 -431.752 2359.91
-239.342 -431.573 2358.93
-260.679 -432.078 2361.69
-281.227 -431.298 2357.43
-301.927 -430.845 2354.95
-323.763 -431.965 2361.07
-344.117 -431.092 2356.3
-365.566 -431.612 2359.14
-386.718 -431.744 2359.86
-408.355 -432.376 2363.32
-428.437 -431.38 2357.88
-448.762 -430.71 2354.21
-470.145 -431.071 2356.19
-492.733 -432.458 2363.77
-512.277 -431.17 2356.73
-533.185 -431.086 2356.27
-554.047 -430.972 2355.64
-575.559 -431.354 2357.73
-598.997 -433.101 2367.28
-617.812 -431.501 2358.54
-642.102 -433.704 2370.58
-661.772 -432.746 2365.34
-679.944 -430.897 2355.23
-704.927 -433.346 2368.62
-728.928 -435.067 2378.03
-759.849 -440.704 2408.84
-792.133 -446.8 2442.16
-819.296 -449.758 2458.33
-839.648 -448.921 2453.75
-861.179 -448.74 2452.76
-887.981 -451.248 2466.47
-905.052 -448.808 2453.13
-928.826 -449.729 2458.17
-949.421 -449.104 2454.75
-968.819 -447.953 2448.46
-989.542 -447.452 2445.72
-1016.95 -449.93 2459.26
-1038.74 -449.874 2458.96
-1053.84 -446.976 2443.12
-1084.53 -450.678 2463.36
-1109 -451.699 2468.93
-1121.16 -447.766 2447.44
-1140.04 -446.615 2441.15
-1167.25 -448.708 2452.59
-1182.95 -446.378 2439.85
-1226.79 -454.564 2484.6
-1207.83 -439.602 2402.81
-1278 -457.034 2498.1
-1283.37 -451.094 2465.63
-1297.47 -448.366 2450.72
-1373.53 -466.79 2551.42
-1384.56 -462.874 2530.02
-1419.23 -466.859 2551.8
-1421.1 -460.097 2514.84
0 0 0
0 0 0
1381.23 -554.345 2889.19
1416.09 -579.137 3018.4
1303.58 -543.452 2832.41
1244.41 -529.036 2757.28
1244.49 -539.73 2813.02
1160.62 -513.708 2677.39
1103.37 -498.624 2598.78
1101.3 -508.365 2649.55
1113.23 -525.137 2736.96
1071.71 -516.882 2693.94
1053.99 -519.99 2710.13
1002.75 -506.314 2638.86
991.252 -512.536 2671.28
966.452 -512.015 2668.57
911.814 -495.261 2581.25
910.729 -507.481 2644.94
844.118 -482.866 2516.65
854.331 -502.054 2616.65
846.197 -511.234 2664.5
806.48 -501.313 2612.79
759.652 -486.25 2534.28
734.391 -484.491 2525.12
