# .PCD v0.7 - Point Cloud Data file format
VERSION 0.7
FIELDS x y z
SIZE 4 4 4
TYPE F F F
COUNT 1 1 1
WIDTH 2008
HEIGHT 1
VIEWPOINT 0 0 0 1 0 0 0
POINTS 2008
DATA ascii
-154.397 930.565 2346.5
-175.708 932.638 2351.72
-194.929 924.354 2330.84
-213.251 913.815 2304.26
-234.373 916.074 2309.96
-253.946 912.4 2300.69
-278.848 926.991 2337.48
-302.128 934.538 2356.52
-321.422 929.575 2344
-344.645 935.885 2359.91
-363.844 931.173 2348.03
-381.305 922.765 2326.83
-407.568 935.429 2358.76
-425.031 927.644 2339.13
-451.198 938.694 2367
-472.527 939.142 2368.12
-501.072 953.281 2403.78
-509.797 930.096 2345.32
-532.102 932.541 2351.48
-562.594 948.605 2391.99
-575.813 935.433 2358.77
-598.736 938.399 2366.25
-612.52 927.328 2338.33
-644.597 943.768 2379.79
-656.94 931.188 2348.07
-677.007 929.996 2345.06
-697.783 929.819 2344.62
-749.474 969.651 2445.05
-731.021 919.045 2317.45
-769.902 941.32 2373.62
-784.795 933.86 2354.8
-815.706 945.351 2383.78
-811.356 916.433 2310.86
-854.027 940.741 2372.16
-862.594 927.216 2338.05
-909.012 954.055 2405.73
-887.093 909.587 2293.6
-949.661 951.801 2400.05
-968.082 948.882 2392.68
-977.006 936.982 2362.68
-992.359 931.62 2349.16
-1034.25 950.875 2397.71
-1053.34 948.819 2392.52
-1063.06 938.562 2366.66
-1088 941.887 2375.05
-1094.69 929.59 2344.04
-1108.15 923.39 2328.41
-1126.67 921.554 2323.77
-1214.72 975.637 2460.15
0 0 0
0 0 0
0 0 0
0 0 0
0 0 0
0 0 0
0 0 0
0 0 0
1498.68 1171.57 3022.15
1449.5 1153.87 2976.5
1310.96 1063.05 2742.21
1280.05 1057.71 2728.44
1289.51 1086.16 2801.84
1232.24 1058.44 2730.31
1190.88 1043.52 2691.84
1109.57 992.272 2559.64
1047.91 956.808 2468.16
1024.11 955.131 2463.83
1014.5 966.914 2494.23
986.983 961.766 2480.95
994.39 991.199 2556.87
951.119 970.311 2502.99
929.253 970.781 2504.2
898.998 962.296 2482.32
863.728 947.877 2445.12
842.766 948.821 2447.56
815.748 942.816 2432.07
790.975 939.148 2422.6
756.943 923.972 2383.46
758.359 952.44 2456.89
737.525 953.824 2460.46
697.483 929.692 2398.21
675.469 928.823 2395.97
657.647 933.85 2408.94
641.481 941.647 2429.05
613.597 932.187 2404.65
593.473 934.258 2409.99
569.982 930.985 2401.55
546.184 926.935 2391.1
526.14 929.186 2396.91
511.359 941.317 2428.2
492.313 946.321 2441.11
0 0 0
0 0 0
435.276 964.618 2488.31
409.187 955.503 2464.79
0 0 0
350.779 917.682 2367.23
326.686 909.367 2345.78
305.604 908.868 2344.49
291.95 932.011 2404.19
264.288 910.559 2348.86
245.856 919.948 2373.08
224.693 919.93 2373.03
205.67 929.576 2397.91
184.406 930.159 2399.42
160.512 915.889 2362.61
139.516 916.338 2363.76
122.085 944.526 2436.48
97.48 917.41 2366.53
76.5526 919.477 2371.86
55.3738 918.952 2370.51
34.0283 913.304 2355.94
13.1376 921.327 2376.63
-7.92896 907.238 2340.29
-28.4143 895.256 2309.38
-49.3936 902.367 2327.72
-70.7793 910.498 2348.7
-92.8597 921.812 2377.89
-112.86 912.114 2352.87
-132.46 902.721 2328.64
-155.66 917.085 2365.69
-174.015 902.885 2329.06
-198.704 921.073 2375.98
-217.074 909.285 2345.57
-237.715 908.248 2342.89
-258.803 908.948 2344.7
-281.231 913.896 2357.46
-299.59 905.853 2336.72
-319.846 904.219 2332.5
-344.187 913.631 2356.78
-366.642 917.237 2366.08
-387.722 917.2 2365.99
-407.024 913.178 2355.61
-428.122 913.384 2356.14
-449.026 913.173 2355.6
-461.658 896.912 2313.65
-490.136 911.511 2351.31
-514.461 917.504 2366.77
-533.648 914.225 2358.31
-557.797 919.371 2371.59
-576.587 915.632 2361.94
-593.109 908.682 2344.02
-624.239 923.823 2383.07
-638.845 914.318 2358.55
-655.273 907.943 2342.11
-678.923 911.66 2351.7
-700.016 911.825 2352.12
-728.219 920.97 2375.71
-747.171 918.231 2368.65
-783.622 936.555 2415.92
-785.187 913.32 2355.98
-795.764 901.506 2325.5
-840.337 927.827 2393.4
-868.449 935.121 2412.22
-869.815 913.957 2357.62
-892.193 915.351 2361.22
-917.972 920.088 2373.44
-952.545 933.228 2407.33
-954.418 914.457 2358.91
-973.832 912.941 2355
-1000.83 918.449 2369.21
-1039.93 934.608 2410.89
-1032.91 909.5 2346.12
-1051.12 907.162 2340.09
-1100.22 931.052 2401.72
-1110.66 921.945 2378.23
-1169.37 952.495 2457.03
-1159.58 927.149 2391.65
-1156.29 907.827 2341.81
-1231.15 949.459 2449.2
0 0 0
0 0 0
0 0 0
0 0 0
0 0 0
0 0 0
0 0 0
0 0 0
1385.12 1077.26 2844.28
1364.01 1080.63 2853.19
1321.82 1067.1 2817.48
1237.41 1018.31 2688.64
1179.76 990.048 2614.02
1156.83 990.371 2614.88
1092.51 954.538 2520.27
1059.47 945.112 2495.38
1092.7 995.667 2628.86
1007.9 938.531 2478.01
992.708 945.097 2495.34
975.82 950.317 2509.12
960.336 957.182 2527.25
916.647 935.587 2470.23
879.912 920.204 2429.61
871.071 933.95 2465.91
830.332 913.322 2411.45
817.366 922.958 2436.89
806.275 935.297 2469.47
768.129 916.062 2418.68
756.288 927.993 2450.18
717.432 906.499 2393.43
714.905 930.998 2458.12
672.255 903.143 2384.57
666.91 925.223 2442.87
623.864 894.725 2362.34
611.615 907.806 2396.88
584.831 899.48 2374.9
565.753 902.824 2383.73
540.222 895.731 2365
514.174 887.169 2342.39
499.302 897.983 2370.95
489.469 919.215 2427
476.509 936.268 2472.03
439.528 905.488 2390.76
424.433 918.955 2426.32
398.413 908.947 2399.89
368.324 887.99 2344.56
359.63 919.199 2426.96
328.29 892.815 2357.3
307.591 893.74 2359.74
287.732 897.421 2369.46
267.056 898.934 2373.46
248.607 908.851 2399.64
224.388 897.552 2369.81
201.162 888.293 2345.36
181.871 896.272 2366.43
161.116 898.19 2371.49
141.199 906.06 2392.27
117.159 885.57 2338.17
97.1545 893.317 2358.63
75.936 891.095 2352.76
54.4906 883.497 2332.7
33.9002 888.94 2347.07
13.1406 900.343 2377.18
-8.04767 899.642 2375.33
-28.5911 880.108 2323.75
-49.898 890.617 2351.5
-71.2156 895.041 2363.18
-91.4941 887.367 2342.92
-111.225 878.221 2318.77
-134.182 893.425 2358.91
-155.631 895.827 2365.25
-174.95 886.859 2341.58
-197.266 893.377 2358.78
-218.665 894.885 2362.77
-236.151 881.52 2327.48
-257.719 884.322 2334.88
-279.066 886.004 2339.32
-299.4 884.458 2335.23
-319.894 883.557 2332.86
-340.865 884.003 2334.03
-365.418 893.151 2358.19
-378.097 873.861 2307.26
-410.281 899.316 2374.47
-426.683 889.377 2348.22
-445.586 885.336 2337.55
-465.924 884.382 2335.03
-485.997 883.025 2331.45
-511.552 891.335 2353.39
-533.102 892.284 2355.9
-552.081 889.022 2347.29
-573.103 889.168 2347.67
-598.7 896.151 2366.11
-621 897.892 2370.71
-640.882 896.138 2366.07
-653.559 884.741 2335.98
-682.375 895.222 2363.66
-698.201 888.543 2346.02
-729.675 901.589 2380.47
-742.432 891.422 2353.62
-754.704 881.249 2326.76
-778.991 885.274 2337.39
-809.499 895.975 2365.64
-816.708 880.999 2326.1
-847.484 891.558 2353.98
-877.026 900.34 2377.17
-916.216 918.378 2424.79
-919.714 900.632 2377.94
-917.218 877.95 2318.05
-966.464 904.702 2388.69
-968.065 886.662 2341.05
-999.74 896.347 2366.63
-1025.4 900.347 2377.19
-1044.31 898.382 2372
-1065.41 898.343 2371.9
-1061.25 877.422 2316.66
-1116.65 905.596 2391.05
-1124.71 895.047 2363.19
-1183.92 924.842 2441.86
-1189.32 912.282 2408.7
-1205.23 908.093 2397.64
-1316.31 974.499 2572.97
0 0 0
0 0 0
0 0 0
0 0 0
0 0 0
0 0 0
0 0 0
1251.37 950.329 2569.65
1252.38 968.828 2619.67
1176.45 927.39 2507.62
1152.88 926.413 2504.98
1091.09 894.08 2417.55
1073.49 897.39 2426.5
1047.42 893.605 2416.27
1013.69 882.984 2387.55
1011.94 900.372 2434.56
996.584 906.144 2450.17
961.353 893.701 2416.53
928.656 883.096 2387.85
907.105 882.842 2387.16
891.433 888.434 2402.29
862.284 880.54 2380.94
827.769 866.629 2343.33
813.175 873.395 2361.62
804.842 887.422 2399.55
774.178 876.923 2371.16
757.922 882.611 2386.54
731.36 876.279 2369.42
700.977 864.858 2338.54
684.223 870.067 2352.62
661.06 867.197 2344.86
645.18 874.006 2363.27
633.281 886.85 2398
601.673 872.027 2357.92
580.833 872.301 2358.66
554.078 863.38 2334.54
539.222 873.026 2360.62
506.949 854.112 2309.48
490.247 860.942 2327.95
471.711 865.011 2338.95
450.82 864.941 2338.76
433.473 871.991 2357.82
406.054 858.467 2321.25
387.091 862.328 2331.7
364.278 857.563 2318.81
344.008 858.57 2321.53
323.667 859.521 2324.11
305.203 865.925 2341.42
285.962 870.904 2354.88
262.163 861.69 2329.97
240.528 858.616 2321.66
223.537 873.098 2360.82
201.668 869.563 2351.26
178.806 860.427 2326.56
157.962 859.875 2325.06
137.023 858.57 2321.53
115.342 851.314 2301.91
96.2422 864.096 2336.48
75.0994 860.531 2326.84
54.2998 859.679 2324.53
33.8235 866.049 2341.76
12.7332 851.895 2303.49
-7.91873 864.39 2337.27
-28.6172 860.174 2325.87
-49.507 862.836 2333.07
-69.9833 858.848 2322.29
-91.0299 862.082 2331.03
-111.415 859.016 2322.74
-131.644 855.893 2314.29
-153.006 859.983 2325.35
-172.804 855.359 2312.85
-193.306 854.831 2311.42
-214.632 857.7 2319.18
-235.227 857.399 2318.37
-255.274 855.314 2312.73
-280.319 869.031 2349.82
-297.041 856.834 2316.84
-317.883 857.333 2318.19
-340.353 861.896 2330.53
-358.988 856.78 2316.69
-378.876 855.047 2312.01
-401.215 858.74 2321.99
-420.507 855.87 2314.23
-445.795 864.901 2338.65
-460.805 854.075 2309.38
-484.491 859.567 2324.23
-498.809 848.671 2294.77
-528.161 863.204 2334.07
-541.992 852.229 2304.39
-562.424 852.058 2303.93
-588.585 860.272 2326.13
-608.64 859.305 2323.52
-628.858 858.626 2321.68
-651.29 860.915 2327.87
-665.943 853.099 2306.74
-681.549 846.934 2290.07
-708.718 855.079 2312.09
-734.787 861.475 2329.39
-746.251 850.866 2300.7
-778.386 863.763 2335.57
-794.843 859.044 2322.81
-813.863 857.264 2318
-831.159 853.8 2308.64
-842.371 844.406 2283.24
-872.839 854.303 2310
-881.175 842.58 2278.3
-920.625 860.467 2326.66
-928.139 848.374 2293.96
-963.661 861.851 2330.41
-974.279 852.956 2306.35
-995.725 853.714 2308.4
-1009.14 847.691 2292.12
-1047.87 862.757 2332.86
-1079.67 871.635 2356.86
-1077.67 853.409 2307.58
-1111.15 863.444 2334.71
-1128.84 861.059 2328.27
-1156.47 866.203 2342.17
-1163.77 856.213 2315.16
-1202.21 869.077 2349.94
-1250.3 888.363 2402.09
0 0 0
0 0 0
0 0 0
0 0 0
0 0 0
1384.84 1007.88 2792.59
1288.92 955.243 2646.74
1237.33 934.112 2588.19
1161.52 893.547 2475.8
1116.34 875.428 2425.59
1118.37 894.34 2477.99
1073.44 875.71 2426.38
1075.68 895.59 2481.46
1027.33 873.294 2419.68
1021.02 886.551 2456.41
989.438 877.958 2432.6
958.173 869.271 2408.53
947.161 878.979 2435.43
911.104 865.356 2397.69
897.016 872.446 2417.33
866.12 863.135 2391.53
859.555 878.212 2433.31
817.142 856.497 2373.14
810.258 871.857 2415.7
784.728 867.444 2403.47
757.922 861.333 2386.54
743.06 868.835 2407.32
734.596 884.487 2450.69
695.291 862.826 2390.68
665.913 852.504 2362.08
650.404 859.842 2382.41
631.864 863.533 2392.63
604.477 854.97 2368.91
583.322 854.92 2368.77
561.044 853.158 2363.89
538.185 850.341 2356.08
514.617 846.128 2344.41
494.908 848.174 2350.08
477.308 854.174 2366.7
452.611 847.443 2348.05
431.106 846.323 2344.95
413.037 852.177 2361.17
391.419 850.947 2357.76
371.152 852.68 2362.56
351.467 856.04 2371.87
328.09 850.261 2355.86
305.338 845.423 2342.46
284.959 846.926 2346.62
265.225 850.737 2357.18
246.936 860.24 2383.51
225.594 859.893 2382.55
201.039 845.95 2343.92
181.265 851.23 2358.55
159.371 846.633 2345.81
138.913 849.428 2353.55
118.215 851.488 2359.26
97.4479 853.829 2365.75
75.7098 846.612 2345.75
55.2029 852.906 2363.19
33.7714 843.868 2338.15
12.8739 840.54 2328.93
-7.91284 842.924 2335.53
-28.7806 844.229 2339.15
-49.6893 845.136 2341.66
-70.5246 844.625 2340.25
-92.0991 851.18 2358.41
-111.735 840.715 2329.41
-134.747 854.945 2368.84
-153.012 839.285 2325.45
-175.262 846.611 2345.75
-195.505 843.716 2337.73
-215.245 839.414 2325.81
-237.893 846.212 2344.64
-259.822 849.564 2353.93
-278.997 844.081 2338.74
-301.356 848.324 2350.49
-319.806 841.726 2332.21
-340.634 841.812 2332.45
-366.346 853.262 2364.18
-384.664 847.181 2347.33
-403.784 843.403 2336.86
-426.737 847.611 2348.52
-446.686 845.736 2343.32
-465.591 842.142 2333.37
-490.644 849.498 2353.75
-512.206 850.455 2356.4
-525.452 838.073 2322.09
-550.391 844.573 2340.1
-577.39 853.642 2365.23
-593.198 846.112 2344.37
-617.947 851.413 2359.05
-639.199 851.704 2359.86
-655.334 845.377 2342.33
-676.377 845.575 2342.88
-694.69 842.452 2334.23
-721.129 849.078 2352.58
-732.464 838.049 2322.02
-756.387 841.632 2331.95
-778.033 842.557 2334.52
-803.351 847.307 2347.68
-812.212 834.9 2313.3
-847.739 849.838 2354.69
-872.074 853.107 2363.75
-868.707 829.761 2299.06
-899.141 839.033 2324.75
-939.696 857.118 2374.86
-937.231 836.032 2316.44
-969.333 846.024 2344.12
-996.272 851.183 2358.42
-1010.22 845.258 2342
-1029.6 844.029 2338.59
-1065.22 855.898 2371.48
-1080.71 851.44 2359.13
-1081.88 836.088 2316.59
-1136.7 862 2388.39
-1146.89 853.732 2365.48
-1156.68 845.475 2342.6
-1159.67 832.627 2307
-1188.11 838.178 2322.38
-1268.16 879.326 2436.39
-1302.53 887.951 2460.29
0 0 0
0 0 0
0 0 0
0 0 0
1329.58 943.758 2681.15
1288.58 931.404 2646.06
1251.33 921.347 2617.48
1165.88 874.746 2485.09
1123.38 859.181 2440.88
1104.2 861.196 2446.6
1071.78 852.761 2422.64
1055.95 857.447 2435.95
1035.41 858.417 2438.7
1000.89 847.601 2407.98
980.77 848.768 2411.29
974.599 862.33 2449.82
943.664 854.1 2426.44
917.433 849.841 2414.34
882.093 836.738 2377.12
870.574 846.141 2403.83
846.25 843.259 2395.64
841.162 859.894 2442.9
809.925 849.969 2414.7
783.809 845.024 2400.66
751.277 832.69 2365.62
733.812 836.826 2377.37
720.465 846.042 2403.55
700.027 847.243 2406.96
670.239 836.846 2377.42
651.877 840.5 2387.8
626.292 834.774 2371.54
603.283 832.202 2364.23
581.718 831.507 2362.25
557.091 826.22 2347.23
538.373 829.625 2356.91
517.024 829.086 2355.38
502.487 839.89 2386.07
477.3 833.06 2366.67
452.954 827.134 2349.83
437.926 838.474 2382.05
413.032 831.117 2361.15
390.332 827.621 2351.22
372.177 833.913 2369.09
348.288 827.34 2350.42
328.089 829.254 2355.86
306.432 827.491 2350.85
287.005 831.935 2363.47
264.277 826.755 2348.75
244.418 830.431 2359.2
223.291 830.086 2358.22
202.651 831.669 2362.72
180.617 827.235 2350.12
159.755 827.708 2351.46
139.971 834.754 2371.48
117.274 823.838 2340.47
96.9073 828.117 2352.63
75.6191 824.708 2342.94
54.9842 828.541 2353.83
33.785 823.353 2339.09
12.9259 823.087 2338.33
-7.90642 821.433 2333.64
-28.9198 827.358 2350.47
-49.9497 828.576 2353.93
-70.2121 820.11 2329.88
-91.9907 829.176 2355.63
-112.367 824.578 2342.57
-133.733 827.552 2351.02
-155.734 833.116 2366.83
-174.559 822.386 2336.34
-195.661 823.528 2339.59
-215.413 819.318 2327.63
-235.7 817.701 2323.03
-259.72 828.25 2353
-280.781 828.494 2353.7
-301.474 827.692 2351.42
-320.823 823.542 2339.63
-340.76 821.318 2333.31
-365.624 830.542 2359.51
-381.294 819.015 2326.77
-406.342 827.78 2351.67
-426.218 825.667 2345.66
-448.969 829.06 2355.3
-467.046 823.904 2340.66
-489.084 825.878 2346.26
-508.773 823.887 2340.61
-524.157 815.356 2316.37
-550.14 823.333 2339.03
-569.738 821.521 2333.89
-594.551 827.092 2349.71
-609.037 818.407 2325.04
-633.715 823.537 2339.61
-651.706 819.928 2329.36
-679.206 828.136 2352.68
-703.806 832.423 2364.86
-711.898 817.502 2322.47
-736.361 821.694 2334.38
-763.899 828.992 2355.11
-786.331 830.506 2359.41
-796.497 819.326 2327.65
-819.938 822.02 2335.3
-843.132 824.34 2341.9
-866.711 826.915 2349.21
-890.692 829.743 2357.24
-904.467 823.153 2338.52
-927.339 824.951 2343.63
-946.316 823.283 2338.89
-969.892 825.601 2345.48
-985.004 820.767 2331.74
-1000.98 816.841 2320.59
-1032.85 825.775 2345.97
-1052.56 824.83 2343.29
-1078.52 828.725 2354.35
-1111.85 838.025 2380.77
-1111.52 822.084 2335.49
-1138.75 826.736 2348.7
-1150.92 820.483 2330.94
-1173.49 821.731 2334.48
-1186.05 816.055 2318.36
-1221.68 826.175 2347.11
-1244.72 827.575 2351.08
-1308.04 855.276 2429.78
0 0 0
0 0 0
0 0 0
1221.76 845.26 2463.73
1234.21 869.505 2534.4
1163.56 835.023 2433.89
1148.71 840.027 2448.48
1114.42 830.739 2421.41
1082.44 822.844 2398.39
1063.11 824.438 2403.04
1052.77 833.206 2428.6
1025.2 828.43 2414.68
982.801 811.201 2364.46
974.158 821.693 2395.04
943.153 813.369 2370.78
926.632 817.441 2382.65
904.461 816.604 2380.21
887.58 820.617 2391.9
858.796 813.552 2371.31
832.829 808.866 2357.65
818.184 815.218 2376.16
796.237 814.439 2373.9
776.643 816.09 2378.71
753.76 814.281 2373.43
727.277 808.365 2356.19
709.218 811.74 2366.03
686.71 810.074 2361.17
666.304 810.859 2363.46
646.069 811.911 2366.53
627.44 815.121 2375.88
601.342 808.513 2356.62
585.06 815.102 2375.83
553.084 799.499 2330.35
538.53 808.847 2357.59
519.413 811.819 2366.26
492.299 802.019 2337.69
472.204 803.29 2341.4
453.45 807.066 2352.41
433.792 809.521 2359.56
413.819 811.608 2365.64
386.578 798.899 2328.6
369.364 806.647 2351.18
345.624 800.218 2332.44
327.284 806.267 2350.08
304.33 801.001 2334.73
286.077 808.243 2355.83
261.614 797.694 2325.09
241.869 800.958 2334.6
220.247 798.031 2326.07
199.084 796.337 2321.13
179.955 803.324 2341.5
160.003 807.996 2355.11
137.626 799.979 2331.75
116.083 794.816 2316.7
95.3843 794.457 2315.65
75.1874 799.23 2329.57
54.4516 799.732 2331.03
33.619 798.555 2327.6
12.878 799.267 2329.67
-7.90908 800.897 2334.42
-28.3948 791.761 2307.79
-49.3053 797.17 2323.56
-69.8365 795.061 2317.41
-90.7685 797.436 2324.34
-111.272 795.863 2319.75
-132.007 796.179 2320.67
-153.12 798.382 2327.09
-173.207 795.347 2318.25
-195.095 800.348 2332.82
-215.046 797.203 2323.66
-235.105 794.976 2317.17
-257.627 800.767 2334.04
-275.943 793.593 2313.13
-299.046 800.23 2332.48
-317.966 795.535 2318.79
-339.77 798.189 2326.53
-359.654 796.287 2320.99
-379.262 794.015 2314.36
-400.502 795.217 2317.87
-422.113 797.003 2323.07
-441.301 794.259 2315.08
-461.989 794.34 2315.31
-484.971 798.189 2326.53
-509.924 804.834 2345.9
-524.499 795.221 2317.88
-551.157 803.962 2343.36
-565.161 794.28 2315.14
-589.125 798.785 2328.27
-604.373 791.568 2307.23
-636.85 806.649 2351.19
-649.043 795.894 2319.84
-665.677 791.083 2305.82
-690.708 796.239 2320.85
-715.108 800.389 2332.94
-728.512 792.344 2309.49
-754.393 797.94 2325.8
-776.886 799.748 2331.07
-794.182 796.252 2320.88
-805.909 787.491 2295.35
-838.455 799.003 2328.9
-857.319 797.236 2323.75
-886.148 804.601 2345.22
-894.995 793.9 2314.03
-915.219 793.548 2313
-936.092 793.76 2313.62
-964.572 800.275 2332.61
-992.179 805.805 2348.73
-992.781 789.628 2301.58
-1024.13 798.07 2326.18
-1044.47 797.759 2325.28
-1067.12 799.196 2329.46
-1090.18 800.88 2334.37
-1107.51 798.372 2327.06
-1137.19 804.689 2345.48
-1150.15 799.166 2329.38
-1187.73 810.639 2362.82
-1183.48 793.664 2313.34
-1197.02 788.992 2299.72
-1228.22 795.922 2319.92
-1252.84 798.431 2327.24
0 0 0
0 0 0
0 0 0
1317.26 887.645 2656.3
1247.87 856.284 2562.45
1161.64 811.978 2429.87
1151.31 820.05 2454.02
1126.16 817.675 2446.92
1103.81 817.284 2445.75
1063.63 803.404 2404.21
1051.41 810.505 2425.46
1019.01 802.023 2400.08
997.945 802.294 2400.89
984.737 809.03 2421.05
955.983 803.009 2403.03
938.88 806.722 2414.14
914.092 803.852 2405.55
888.726 800.323 2394.99
867.702 800.627 2395.9
848.52 802.689 2402.07
823.604 799.293 2391.91
811.537 808.517 2419.51
785.073 803.51 2404.53
766.306 806.321 2412.94
735.556 796.321 2383.01
715.646 797.812 2387.47
698.28 802.315 2400.95
668.507 792.398 2371.28
651.471 797.424 2386.32
628.798 795.657 2381.03
606.881 794.756 2378.33
581.789 789.48 2362.54
561.978 791.245 2367.82
544.795 796.992 2385.02
521.374 793.709 2375.2
498.088 790.362 2365.18
478.137 792.244 2370.81
455.54 789.715 2363.24
428.75 779.319 2332.13
412.62 788.226 2358.79
390.867 786.772 2354.44
369.607 786.201 2352.73
349.884 789.028 2361.19
327.502 785.836 2351.64
306.738 786.358 2353.2
287.072 789.975 2364.02
265.074 787.241 2355.84
242.519 782.239 2340.87
222.807 786.328 2353.11
202.134 787.525 2356.69
179.35 779.817 2333.63
160.05 787.226 2355.8
138.669 785.094 2349.42
118.011 787.02 2355.18
97.009 786.991 2355.09
76.3397 790.39 2365.27
54.7764 783.595 2344.93
33.7786 781.496 2338.65
13.0125 786.629 2354.01
-8.01408 790.439 2365.41
-28.9268 785.636 2351.04
-49.7609 783.629 2345.03
-70.54 782.2 2340.76
-92.1247 788.318 2359.07
-112.118 781.078 2337.4
-132.579 778.852 2330.74
-153.222 778.154 2328.65
-175.512 784.989 2349.1
-197.044 787.337 2356.13
-218.073 787.416 2356.37
-236.216 777.975 2328.11
-258.006 781.104 2337.48
-281.066 787.322 2356.08
-301.898 786.866 2354.72
-321.522 783.528 2344.73
-344.241 787.677 2357.15
-363.371 783.61 2344.98
-383.798 782.631 2342.05
-407.867 788.795 2360.49
-427.811 786.769 2354.43
-446.018 781.888 2339.82
-465.058 778.837 2330.69
-493.413 790.98 2367.03
-500.953 770.127 2304.63
-527.537 779.042 2331.31
-551.71 783.854 2345.71
-569.999 780.262 2334.96
-589.469 778.481 2329.63
-615.803 785.578 2350.87
-634.241 782.467 2341.56
-657.869 785.753 2351.39
-681.354 788.67 2360.12
-697.333 782.985 2343.11
-714.385 778.8 2330.58
-736.918 780.658 2336.14
-759.497 782.462 2341.54
-788.145 790.254 2364.86
-801.379 782.587 2341.91
-819.567 780.025 2334.25
-841.138 780.729 2336.36
-861.702 780.488 2335.63
-874.784 773.641 2315.14
-900.578 778.093 2328.47
-927.585 783.368 2344.25
-951.92 786.204 2352.74
-957.347 773.638 2315.14
-988.548 781.992 2340.13
-1013.26 784.975 2349.06
-1027.66 780.003 2334.18
-1062.15 790.183 2364.65
-1081.11 788.633 2360.01
-1089.41 779.518 2332.73
-1134.28 796.42 2383.31
-1147.67 791.004 2367.1
-1180.28 798.786 2390.39
-1187.77 789.602 2362.91
-1192.63 779.014 2331.22
-1241.69 797.163 2385.53
-1246.14 786.547 2353.77
-1271.45 789.235 2361.81
-1305.57 797.213 2385.68
-1315.71 790.524 2365.67
0 0 0
1313.29 861.362 2648.31
1237.15 826.278 2540.44
1171.23 796.839 2449.93
1134.71 786.662 2418.64
1110.22 784.598 2412.3
1092.88 787.598 2421.52
1065.26 783.163 2407.88
1043.88 783.235 2408.1
1025.08 785.275 2414.38
1009.43 789.873 2428.51
988.454 790.417 2430.19
945.819 773.274 2377.48
929.973 777.749 2391.24
910.122 779.006 2395.1
894.152 783.726 2409.61
869.11 780.53 2399.79
848.953 781.671 2403.29
821.845 776.305 2386.8
799.818 775.581 2384.57
780.45 777.467 2390.37
759.786 778.13 2392.41
741.579 781.421 2402.53
719.049 780.217 2398.82
695.47 777.767 2391.29
668.868 771.673 2372.56
644.045 767.301 2359.12
631.586 777.862 2391.58
607.46 774.289 2380.6
584.621 772.157 2374.04
559.875 767.252 2358.96
542.78 772.858 2376.2
519.636 769.956 2367.28
499.36 771.238 2371.22
473.145 763.057 2346.07
458.693 773.965 2379.6
433.643 767.183 2358.75
410.076 762.465 2344.25
392.503 768.986 2364.29
371.453 769.048 2364.48
348.701 765.381 2353.21
327.831 765.639 2354
306.556 764.923 2351.8
286.792 768.147 2361.72
265.983 768.863 2363.92
242.372 760.908 2339.46
223.214 766.748 2357.41
201.61 764.527 2350.59
180.479 763.792 2348.32
158.539 758.988 2333.56
138.476 763.081 2346.14
117.562 763.107 2346.22
97.0313 766.169 2355.63
76.082 766.705 2357.28
54.8551 763.784 2348.3
33.8271 761.736 2342
12.963 762.725 2345.05
-7.96125 764.278 2349.82
-28.9451 765.158 2352.52
-50.1754 769.074 2364.57
-70.9276 765.514 2353.62
-91.701 763.756 2348.21
-112.188 760.708 2338.84
-132.876 759.769 2335.96
-153.877 760.63 2338.6
-175.905 765.754 2354.36
-195.503 760.335 2337.7
-217.069 762.88 2345.52
-238.662 765.059 2352.22
-258.892 762.875 2345.51
-279.999 763.406 2347.14
-299.904 760.813 2339.17
-321.457 762.466 2344.25
-341.424 760.386 2337.86
-362.712 761.319 2340.72
-384.023 762.197 2343.42
-403.571 759.663 2335.63
-427.381 765.008 2352.06
-445.203 759.635 2335.54
-468.86 764.254 2349.75
-486.701 759.403 2334.83
-506.479 757.849 2330.05
-530.138 761.995 2342.8
-552.668 764.266 2349.78
-570.078 759.549 2335.28
-591.416 760.214 2337.32
-613.716 762.028 2342.9
-632.577 759.593 2335.41
-654.872 761.304 2340.68
-667.946 752.522 2313.67
-686.793 750.575 2307.69
-720.051 764.033 2349.07
-739.575 762.569 2344.57
-759.57 761.658 2341.76
-784.307 765.423 2353.34
-795.877 756.477 2325.83
-822.475 761.907 2342.53
-845.404 763.753 2348.21
-861.422 759.417 2334.87
-884.956 761.756 2342.07
-904.411 760.556 2338.37
-928.686 763.372 2347.04
-947.298 761.513 2341.32
-970.893 763.652 2347.9
-988.199 760.859 2339.31
-1015.19 765.482 2353.52
-1044.65 771.749 2372.79
-1056.68 765.138 2352.46
-1075.13 763.35 2346.97
-1090.2 759.272 2334.43
-1128.12 770.962 2370.37
-1141.39 765.686 2354.15
-1170.09 770.767 2369.77
-1190.34 770.196 2368.01
-1238.06 787.114 2420.03
-1222.15 763.689 2348.01
-1253.72 770.222 2368.1
-1283.24 775.3 2383.71
-1295.84 770.156 2367.89
-1303.48 762.279 2343.67
-1345.28 774.314 2380.67
1218.63 777.362 2457.41
1193.89 775.528 2451.61
1145.55 758.001 2396.21
1151.86 776.665 2455.21
1115.86 766.962 2424.53
1083.02 759.098 2399.67
1071.49 766.153 2421.98
1040.09 758.995 2399.35
1014.98 756.227 2390.6
1005.06 764.898 2418.01
963.207 749.114 2368.11
953.286 758.014 2396.25
925.143 752.5 2378.82
907.442 755.421 2388.05
889.879 758.599 2398.1
863.293 754.053 2383.73
839.123 751.441 2375.47
821.588 754.789 2386.05
803.53 757.822 2395.64
774.273 750.17 2371.45
757.826 754.848 2386.24
734.599 752.847 2379.91
717.202 756.881 2392.67
689.666 750.133 2371.33
667.892 749.425 2369.1
646.367 748.958 2367.62
626.048 749.905 2370.61
603.276 747.876 2364.2
581.488 746.966 2361.32
567.218 756.006 2389.9
539.657 747.347 2362.53
520.724 750.417 2372.23
494.504 742.802 2348.16
477.163 748.441 2365.98
454.423 745.741 2357.45
435.772 749.815 2370.33
410.618 742.545 2347.35
393.81 750.397 2372.17
369.582 744.199 2352.57
348.75 744.503 2353.54
328.009 745.056 2355.28
307.957 747.354 2362.55
285.801 744.511 2353.56
265.386 746.108 2358.61
242.701 741.052 2342.63
222.171 742.243 2346.39
202.783 747.892 2364.25
179.484 738.757 2335.37
158.561 738.286 2333.88
138.16 740.471 2340.79
118.153 745.919 2358.01
97.0474 745.29 2356.02
76.064 745.512 2356.73
55.0865 745.981 2358.21
33.9424 743.382 2349.99
12.9966 743.743 2351.13
-7.93993 741.337 2343.53
-28.9147 743.401 2350.05
-49.6583 740.284 2340.2
-70.7096 742.241 2346.39
-91.7527 743.239 2349.54
-111.656 736.349 2327.76
-134.033 745.373 2356.29
-153.274 736.876 2329.43
-174.867 740.369 2340.47
-196.325 742.603 2347.53
-216.31 739.373 2337.32
-236.58 737.596 2331.7
-256.941 736.37 2327.82
-278.909 739.588 2338
-302.127 745.443 2356.51
-322.277 743.459 2350.23
-343.121 743.219 2349.48
-361.88 738.751 2335.35
-384.688 742.586 2347.48
-402.315 736.54 2328.36
-425.215 740.267 2340.14
-447.931 743.339 2349.86
-467.792 741.612 2344.4
-486.747 738.656 2335.05
-509.769 741.863 2345.19
-531.664 743.241 2349.55
-550.752 740.739 2341.64
-570.349 739.079 2336.39
-590.757 738.55 2334.72
-614.974 742.658 2347.7
-636.618 743.489 2350.33
-651.305 736.402 2327.93
-674.866 739.476 2337.64
-688.171 731.465 2312.32
-719.529 742.551 2347.36
-742.777 744.876 2354.72
-752.507 733.891 2319.99
-778.283 738.723 2335.27
-799.296 738.901 2335.83
-820.269 739.033 2336.25
-841.525 739.408 2337.43
-858.767 736.324 2327.68
-884.618 740.591 2341.17
-903.364 738.851 2335.67
-922.679 737.644 2331.85
-950.16 742.875 2348.39
-967.574 740.179 2339.87
-986.671 738.858 2335.69
-1009.83 740.573 2341.11
-1022.96 735.009 2323.52
-1051.91 740.807 2341.85
-1069.47 738.516 2334.61
-1095.01 741.712 2344.71
-1109.48 737.436 2331.19
-1147.61 748.755 2366.98
-1157.25 741.408 2343.75
-1175.57 739.786 2338.62
-1182.36 731.091 2311.14
-1232.26 748.895 2367.42
-1249.11 746.352 2359.38
-1267.61 744.864 2354.68
-1289.23 745.226 2355.82
-1301.44 740.222 2340
-1340.88 750.621 2372.88
1221.15 757.017 2462.5
1203.98 760.037 2472.32
1166.24 749.943 2439.49
1143.25 749.13 2436.85
1112.59 743.164 2417.44
1090.49 742.789 2416.22
1071.07 744.267 2421.03
1047.7 743.001 2416.91
1020.58 738.965 2403.78
1001.72 740.872 2409.98
968.229 731.796 2380.46
956.821 739.382 2405.13
935.568 739.532 2405.62
909.135 735.499 2392.51
888.207 735.833 2393.59
865.25 734.461 2389.13
842.634 733.317 2385.41
825.345 736.869 2396.96
801.105 734.24 2388.41
776.361 730.992 2377.85
761.039 736.683 2396.36
732.918 729.954 2374.47
713.927 732.189 2381.74
698.79 738.635 2402.71
664.789 724.918 2358.09
650.933 732.99 2384.34
629.499 732.787 2383.68
603.299 726.825 2364.29
584.261 729.375 2372.58
562.834 729.02 2371.43
545.017 733.497 2385.99
519.525 727.588 2366.77
498.67 727.948 2367.94
478.709 729.703 2373.65
457.893 730.258 2375.46
434.248 726.134 2362.04
411.797 723.688 2354.08
392.591 726.989 2364.82
370.499 725.018 2358.41
348.776 723.574 2353.71
328.959 726.153 2362.1
308.479 727.521 2366.55
285.018 721.544 2347.11
265.089 724.268 2355.97
242.621 719.928 2341.85
223.721 726.358 2362.77
202.15 724.545 2356.87
182.428 729.711 2373.68
159.221 720.463 2343.59
139.129 724.648 2357.21
118.117 724.676 2357.3
96.7818 722.302 2349.58
75.8868 722.812 2351.23
55.0923 725.032 2358.46
33.8905 721.324 2346.39
13.0666 726.672 2363.79
-7.96979 723.152 2352.34
-28.941 723.106 2352.19
-49.9668 723.888 2354.74
-71.004 724.324 2356.16
-92.0598 724.708 2357.4
-112.443 720.636 2344.16
-133.937 723.85 2354.61
-155.356 725.835 2361.07
-175.523 722.198 2349.24
-195.147 717.341 2333.44
-216.591 719.465 2340.35
-237.946 720.949 2345.17
-258.635 720.333 2343.17
-280.854 723.755 2354.3
-301.18 722.161 2349.12
-321.132 719.936 2341.88
-344.389 724.942 2358.16
-365.708 725.525 2360.06
-384.712 721.702 2347.62
-403.961 718.708 2337.89
-427.289 722.912 2351.56
-448.673 723.584 2353.75
-469.874 723.917 2354.83
-491.648 725.065 2358.56
-510.806 722.42 2349.96
-532.319 723.182 2352.44
-552.083 721.6 2347.29
-570.131 717.974 2335.5
-591.468 718.598 2337.53
-613.771 720.314 2343.11
-634.623 720.27 2342.97
-655.172 719.896 2341.75
-675.659 719.479 2340.39
-702.373 725.518 2360.04
-719.243 721.335 2346.43
-744.216 725.284 2359.28
-759.579 719.909 2341.79
-781.29 720.676 2344.29
-796.465 715.532 2327.55
-826.276 723.463 2353.35
-843.759 720.476 2343.64
-862.036 718.294 2336.54
-885.925 720.781 2344.63
-904.341 718.803 2338.19
-928.619 721.468 2346.87
-949.372 721.338 2346.44
-969.697 720.896 2345
-990.322 720.69 2344.33
-1004.4 715.828 2328.52
-1024.78 715.562 2327.65
-1051.01 719.31 2339.84
-1074.16 720.844 2344.83
-1092.03 718.844 2338.33
-1098.15 709.332 2307.38
-1140.34 723.039 2351.97
-1169.89 728.385 2369.36
-1186.22 725.45 2359.82
-1195.32 718.275 2336.48
-1231.65 727.427 2366.25
-1218.22 707.379 2301.03
-1252.31 715.133 2326.26
-1309.41 735.559 2392.7
-1327.95 734.015 2387.68
-1326.4 721.591 2347.26
1221.04 734.998 2462.29
1188.25 728.35 2440.02
1167.79 729.164 2442.74
1131.66 720.033 2412.15
1104.81 716.565 2400.54
1101.1 728.265 2439.73
1065.51 718.933 2408.47
1038.79 715.316 2396.35
1018.22 715.879 2398.24
1002.76 720.127 2412.47
983.748 721.961 2418.61
953.904 715.749 2397.8
938.302 720.182 2412.65
913.177 717.343 2403.14
886.14 712.83 2388.02
864.54 712.575 2387.17
844.186 713.361 2389.8
819.982 710.85 2381.39
801.986 713.729 2391.04
777.516 710.848 2381.38
757.524 712.013 2385.29
734.588 710.398 2379.88
713.904 710.931 2381.66
693.685 711.973 2385.15
669.192 708.557 2373.71
646.621 707.017 2368.55
626.304 707.922 2371.58
606.609 709.618 2377.26
582.417 705.986 2365.09
563.938 709.266 2376.08
544.168 711.114 2382.27
518.699 705.363 2363.01
498.868 707.116 2368.88
475.488 703.772 2357.68
456.447 706.839 2367.95
435.118 706.487 2366.77
413.119 704.956 2361.65
391.811 704.503 2360.13
369.313 701.736 2350.86
349.482 704.011 2358.48
328.569 704.258 2359.3
307.496 704.171 2359.01
285.021 700.625 2347.14
264.237 701.003 2348.4
243.611 701.902 2351.41
224.271 707.024 2368.57
202.483 704.692 2360.76
181.335 704.303 2359.46
160.588 705.575 2363.72
140.094 708.51 2373.55
117.881 702.255 2352.6
97.1789 704.232 2359.22
75.8273 701.298 2349.39
55.0273 703.174 2355.67
33.9883 702.424 2353.16
12.9612 699.908 2344.73
-8.00252 705.062 2362
-28.9538 702.443 2353.23
-50.0905 704.634 2360.57
-70.9199 702.485 2353.37
-92.1379 704.287 2359.4
-113.272 704.894 2361.44
-133.67 701.451 2349.9
-154.04 698.816 2341.07
-175.955 702.981 2355.03
-196.426 701.102 2348.73
-217.741 702.31 2352.78
-238.434 701.472 2349.97
-256.849 694.613 2326.99
-281.086 703.346 2356.25
-302.037 703.211 2355.8
-323.868 705.013 2361.83
-340.376 695.713 2330.68
-364.979 703.078 2355.35
-382.85 697.379 2336.26
-406.895 702.933 2354.87
-425.744 699.406 2343.05
-446.514 699.218 2342.42
-468.18 700.388 2346.34
-489.881 701.506 2350.09
-510.591 701.173 2348.97
-530.824 700.235 2345.83
-552.505 701.208 2349.09
-571.698 699.067 2341.92
-594.973 701.891 2351.38
-613.741 699.389 2342.99
-635.845 700.727 2347.48
-655.133 698.975 2341.61
-678.014 701.047 2348.55
-697.4 699.489 2343.33
-715.81 697.072 2335.23
-739.829 700.098 2345.37
-758.921 698.424 2339.76
-783.351 701.621 2350.47
-800.739 698.508 2340.04
-827.477 703.503 2356.78
-848.889 703.833 2357.88
-869.601 703.582 2357.04
-883.78 698.182 2338.95
-904.226 697.867 2337.9
-924.958 697.782 2337.61
-942.741 695.526 2330.05
-971.037 700.955 2348.24
-992.805 701.543 2350.21
-1013.78 701.561 2350.27
-1030.82 698.906 2341.38
-1042.93 693.077 2321.85
-1075.99 701.13 2348.83
-1102.04 704.398 2359.77
-1108.28 695.117 2328.68
-1135.92 699.35 2342.86
-1158.58 700.418 2346.44
-1161.27 689.592 2310.17
-1213.55 708.083 2372.12
-1259.98 722.577 2420.68
-1272.65 717.552 2403.84
-1277.69 708.461 2373.39
-1315.21 717.387 2403.29
-1312.64 704.51 2360.15
-1413.7 746.777 2501.75
1216.57 710.431 2453.26
1198.23 712.531 2460.51
1158.44 701.719 2423.18
1133.12 699.423 2415.25
1110.68 698.857 2413.29
1098.57 704.887 2434.12
1064.57 696.839 2406.32
1042.08 696.15 2403.95
1023.73 698.253 2411.21
991.869 691.032 2386.27
981.443 698.757 2412.95
950.918 692.197 2390.3
931.893 693.899 2396.17
904.495 689.3 2380.29
888.376 693.283 2394.05
863.446 690.417 2384.15
843.766 691.71 2388.61
816.43 686.63 2371.07
801.288 691.809 2388.96
780.723 692.46 2391.2
751.613 685.356 2366.67
736.219 690.71 2385.16
717.434 693.107 2393.44
688.782 685.826 2368.3
670.96 689.209 2379.98
647.576 686.912 2372.05
626.004 686.449 2370.45
603.707 685.129 2365.89
581.448 683.759 2361.16
563.011 686.949 2372.17
540.921 685.758 2368.06
520.312 686.422 2370.36
494.871 680.499 2349.9
477.736 685.98 2368.83
455.329 684.047 2362.15
435.79 686.443 2370.43
414.587 686.33 2370.04
391.632 683.148 2359.05
370.484 682.935 2358.31
349.183 682.398 2356.46
328.421 682.914 2358.24
308.228 684.763 2364.63
285.932 681.871 2354.64
266.265 685.285 2366.43
242.907 678.968 2344.61
223.359 683.118 2358.94
202.066 682.235 2355.9
181.55 684.076 2362.25
159.021 677.82 2340.65
138.676 680.394 2349.54
118.166 682.922 2358.27
96.3063 677.063 2338.03
75.7934 680.047 2348.34
55.048 682.428 2356.56
33.8761 679.196 2345.4
12.9341 677.583 2339.83
-7.93399 678.145 2341.77
-28.8228 678.38 2342.58
-50.0077 682.458 2356.66
-70.4546 677.031 2337.92
-91.7605 680.452 2349.74
-112.164 677.152 2338.34
-133.064 677.417 2339.26
-154.852 681.518 2353.42
-175.448 680.016 2348.23
-196.337 679.853 2347.67
-216.315 676.871 2337.37
-237.161 676.889 2337.43
-259.677 681.285 2352.61
-278.569 676.227 2335.15
-301.533 681.07 2351.87
-320.066 675.927 2334.11
-342.016 678.185 2341.91
-361.867 676.262 2335.27
-382.664 676.221 2335.13
-404.905 678.602 2343.35
-425.71 678.463 2342.87
-448.458 681.287 2352.62
-468.33 679.686 2347.09
-491.215 682.406 2356.49
-510.752 680.443 2349.71
-530.137 678.441 2342.79
-550.91 678.3 2342.31
-572.094 678.656 2343.54
-594.913 680.859 2351.14
-616.599 681.659 2353.91
-642.571 686.988 2372.31
-657.388 680.432 2349.67
-675.526 677.613 2339.93
-694.285 675.566 2332.86
-717.119 677.488 2339.5
-738.566 678.028 2341.37
-758.808 677.462 2339.41
-781.104 678.712 2343.73
-801.86 678.594 2343.32
-818.407 675.009 2330.94
-839.935 675.609 2333.02
-862.783 677.216 2338.56
-881.914 675.898 2334.01
-910.673 681.85 2354.57
-927.266 678.63 2343.45
-951.965 681.353 2352.85
-966.05 676.526 2336.18
-987.345 676.846 2337.29
-1013.58 680.468 2349.79
-1029.04 676.858 2337.33
-1056.14 680.897 2351.27
-1076.96 680.802 2350.95
-1094.03 678.388 2342.61
-1122.14 682.786 2357.8
-1133.53 677.035 2337.94
-1159.15 679.833 2347.6
-1175.72 677.319 2338.92
-1217.24 689.019 2379.32
-1210.99 673.738 2326.55
-1250.61 684.067 2362.22
-1274.15 685.399 2366.82
-1299.55 687.675 2374.68
-1308.99 681.563 2353.57
-1407.28 721.179 2490.38
1208.13 683.782 2436.24
1187.38 684.342 2438.24
1155.67 678.489 2417.39
1118.45 669.117 2383.99
1115.7 680.403 2424.21
1090.38 678.094 2415.98
1063.55 674.741 2404.03
1038.39 672.329 2395.44
1015.58 671.367 2392.01
991.281 669.359 2384.86
975.424 673.09 2398.15
956.447 674.786 2404.19
932.063 672.658 2396.61
914.275 675.302 2406.03
884.175 668.761 2382.73
863.612 669.289 2384.61
844.581 671.06 2390.92
820.364 668.697 2382.5
798.694 668.338 2381.22
786.294 675.929 2408.27
754.693 666.977 2376.37
736.387 669.597 2385.71
715.942 670.371 2388.46
695.678 671.366 2392.01
671.645 668.671 2382.41
649.256 667.491 2378.2
628.374 667.833 2379.42
605.285 665.772 2372.08
585.281 667.077 2376.73
562.711 665.445 2370.91
546.646 671.68 2393.13
518.796 663.351 2363.45
497.778 663.423 2363.71
476.532 663.185 2362.86
458.19 667.151 2376.99
436.784 666.827 2375.84
412.879 662.458 2360.27
394.898 667.637 2378.72
368.345 658.088 2344.7
351.542 665.856 2372.38
328.649 662.347 2359.88
305.953 658.784 2347.18
285.203 659.191 2348.63
265.592 662.507 2360.45
243.671 660.135 2351.99
222.791 660.402 2352.94
202.95 664.123 2366.2
182.27 665.644 2371.62
159.85 660.378 2352.86
139.172 661.803 2357.93
118.829 665.609 2371.5
96.5327 657.759 2343.53
75.9717 660.66 2353.86
54.8852 659.461 2349.59
33.7334 655.511 2335.52
12.9859 659.348 2349.19
-7.98202 661.246 2355.95
-28.8551 658.23 2345.21
-49.9619 660.841 2354.51
-70.7943 659.35 2349.2
-92.1264 662.132 2359.11
-112.842 660.275 2352.49
-133.595 659.18 2348.59
-154.33 658.308 2345.48
-175.141 657.928 2344.13
-196.234 658.577 2346.44
-216.732 657.294 2341.87
-238.784 660.537 2353.43
-258.907 658.353 2345.64
-280.814 660.689 2353.97
-301.865 660.827 2354.46
-322.247 659.579 2350.01
-342.526 658.286 2345.41
-366.094 663.098 2362.55
-385.257 659.842 2350.95
-405.996 659.482 2349.67
-426.338 658.544 2346.32
-448.577 660.486 2353.24
-468.827 659.459 2349.58
-490.556 660.508 2353.32
-505.758 653.046 2326.74
-530.689 658.239 2345.24
-551.039 657.571 2342.86
-575.887 662.123 2359.08
-595.998 661.1 2355.43
-612.584 656.37 2338.58
-636.165 659.199 2348.66
-652.848 654.929 2333.44
-675.396 656.623 2339.48
-696.897 657.23 2341.64
-721.786 660.902 2354.73
-733.765 652.881 2326.15
-758.945 656.723 2339.84
-779.105 656.132 2337.73
-799.182 655.504 2335.5
-823.338 658.169 2344.99
-841.701 656.185 2337.92
-868.268 660.538 2353.43
-876.91 651.371 2320.77
-902.086 654.626 2332.37
-928.104 658.331 2345.56
-947.014 656.941 2340.61
-967.273 656.528 2339.14
-989.716 657.583 2342.9
-1008.71 656.35 2338.51
-1025.63 653.845 2329.58
-1046.73 654.049 2330.31
-1071.82 656.691 2339.72
-1094.94 658.05 2344.56
-1112.66 656.173 2337.88
-1131.49 655.01 2333.73
-1148.92 653.09 2326.89
-1167.5 651.88 2322.58
-1201.43 659.132 2348.42
-1203.41 648.909 2312
-1241.6 658.226 2345.19
-1261.79 657.852 2343.86
-1276.31 654.582 2332.21
-1313.27 662.74 2361.28
-1342.93 667.013 2376.5
1244.92 682.219 2510.42
1199.82 669.543 2463.78
1171.26 665.797 2449.99
1156.46 669.878 2465.01
1120.28 661.488 2434.14
1105.26 665.512 2448.94
1077 661.567 2434.43
1052.38 659.741 2427.71
1022.88 654.713 2409.21
1010.36 660.571 2430.76
975.168 651.537 2397.52
966.242 660.041 2428.81
930.422 650.143 2392.39
916.81 655.663 2412.7
885.296 648.338 2385.75
875.933 657.273 2418.63
848.895 653.062 2403.13
828.994 654.266 2407.56
810.205 656.434 2415.54
784.026 652.57 2401.32
760.962 651.154 2396.11
740.22 651.702 2398.13
716.344 649.44 2389.8
696.885 651.167 2396.16
670.978 646.787 2380.04
654.468 651.475 2397.29
630.961 649.28 2389.22
606.354 645.76 2376.26
586.088 646.776 2380
564.382 646.22 2377.95
543.751 646.898 2380.45
523.042 647.535 2382.79
501.064 646.588 2379.31
481.596 648.941 2387.97
459.204 647.389 2382.26
433.911 641.398 2360.21
413.466 642.326 2363.62
393.566 644.247 2370.7
372.168 643.795 2369.03
352.472 646.411 2378.66
330.587 645.089 2373.79
308.64 643.458 2367.79
288.059 644.642 2372.15
266.085 642.653 2364.83
245.219 643.224 2366.93
223.843 642.443 2364.06
202.999 643.182 2366.78
181.428 641.522 2360.67
160.607 642.429 2364
139.547 642.505 2364.28
118.038 640.176 2355.71
97.1109 640.68 2357.57
76.3323 642.71 2365.04
54.9433 639.188 2352.08
34.0476 640.599 2357.27
13.069 642.488 2364.22
-7.98723 640.658 2357.49
-28.8856 637.994 2347.68
-50.1992 642.887 2365.69
-71.1307 641.439 2360.36
-92.4878 643.614 2368.36
-113.47 642.858 2365.58
-134.174 641.008 2358.77
-154.746 639.112 2351.8
-175.971 640.049 2355.25
-196.842 639.631 2353.71
-217.046 637.338 2345.27
-239.228 640.744 2357.8
-259.706 639.405 2352.87
-279.276 636.197 2341.07
-301.072 638.156 2348.28
-322.316 638.764 2350.52
-344.412 640.884 2358.32
-362.921 636.469 2342.07
-383.932 636.683 2342.86
-407.065 640.214 2355.85
-426.249 637.491 2345.83
-449.571 640.922 2358.46
-470.997 641.466 2360.46
-490.452 639.392 2352.83
-513.642 642.158 2363.01
-534.837 642.31 2363.56
-551.133 636.791 2343.26
-573.697 638.652 2350.11
-593.728 637.662 2346.46
-616.599 639.684 2353.9
-638.287 640.388 2356.49
-658.152 639.276 2352.4
-681.126 641.158 2359.33
-697.82 637.194 2344.74
-718.484 636.981 2343.96
-743.749 640.742 2357.8
-764.412 640.442 2356.69
-781.947 637.607 2346.26
-805.537 639.728 2354.06
-822.463 636.584 2342.5
-847.359 639.612 2353.64
-869.027 640.115 2355.49
-885.192 636.636 2342.69
-910.195 639.528 2353.33
-926.749 636.488 2342.14
-948.896 637.337 2345.27
-973.262 639.608 2353.62
-987.886 635.516 2338.57
-1012.22 637.709 2346.64
-1035.83 639.372 2352.75
-1052.33 636.66 2342.77
-1079.13 640.167 2355.68
-1090.45 634.534 2334.95
-1122.69 641.059 2358.96
-1140.83 639.433 2352.98
-1163.11 640.153 2355.63
-1184.07 640.129 2355.54
-1206.3 640.78 2357.94
-1227.6 640.928 2358.48
-1248.4 640.81 2358.05
-1249.31 630.657 2320.69
-1306.15 648.606 2386.73
-1323.65 646.757 2379.93
-1365.4 656.635 2416.28
1202.63 637.423 2425.15
1171.33 632.198 2405.27
1160.4 637.983 2427.28
1143.72 640.763 2437.86
1121.14 640.278 2436.01
1094.92 637.659 2426.05
1069.59 635.458 2417.67
1042 631.802 2403.76
1016.09 629.031 2393.22
1001.11 633.048 2408.5
973.022 628.775 2392.24
945.493 624.678 2376.66
927.66 626.947 2385.29
904.466 625.613 2380.22
888.393 629.261 2394.09
869.076 630.732 2399.69
841.213 625.92 2381.38
824.337 629.245 2394.03
793.632 621.91 2366.13
775.677 624.439 2375.75
751.353 621.838 2365.85
732.58 623.815 2373.37
713.361 625.517 2379.85
692.637 625.964 2381.55
669.212 623.921 2373.78
650.98 626.743 2384.52
628.568 625.597 2380.15
609.304 627.613 2387.82
580.836 619.951 2358.67
560.654 620.89 2362.24
539.297 620.549 2360.95
521.664 624.641 2376.52
499.54 623.474 2372.08
476.503 621.012 2362.71
453.411 618.25 2352.2
434.673 621.443 2364.35
412.192 619.339 2356.34
391.408 619.694 2357.7
371.626 621.767 2365.58
349.269 619.522 2357.04
327.84 618.739 2354.06
307.441 619.928 2358.59
286.942 621.075 2362.95
264.94 618.893 2354.65
244.363 619.951 2358.68
223.79 621.219 2363.5
201.877 618.643 2353.7
180.866 618.553 2353.35
160.045 619.178 2355.73
138.773 617.982 2351.18
118.203 620.04 2359.01
96.9287 618.498 2353.14
75.5661 615.384 2341.3
54.8397 617.051 2347.64
33.844 615.878 2343.18
12.9751 616.946 2347.24
-7.94931 616.697 2346.29
-28.8666 616.657 2346.14
-49.839 617.333 2348.71
-71.0851 619.996 2358.85
-91.2593 614.229 2336.9
-112.564 616.8 2346.68
-133.593 617.292 2348.56
-154.2 615.963 2343.5
-174.848 615.097 2340.21
-195.423 614.186 2336.74
-217.347 617.283 2348.52
-238.095 616.788 2346.64
-258.473 615.491 2341.71
-279.545 615.919 2343.33
-301.363 617.816 2350.55
-320.392 614.12 2336.49
-341.388 614.415 2337.61
-363.267 616.174 2344.31
-383.357 614.873 2339.35
-405.64 617.041 2347.6
-425.612 615.655 2342.33
-447.819 617.48 2349.27
-468.029 616.51 2345.58
-491.304 619.489 2356.92
-509.389 615.947 2343.44
-529.346 614.858 2339.3
-552.522 617.451 2349.16
-572.61 616.528 2345.65
-592.837 615.815 2342.94
-615.924 618.021 2351.33
-634.296 615.505 2341.76
-656.122 616.395 2345.14
-677.692 616.997 2347.43
-699.532 617.801 2350.49
-718.249 615.881 2343.19
-739.72 616.363 2345.02
-757.58 613.894 2335.63
-782.604 617.206 2348.23
-803.383 617.085 2347.77
-820.568 614.28 2337.1
-840.822 613.854 2335.48
-859.99 612.675 2330.99
-877.32 610.274 2321.86
-904.615 614.755 2338.9
-924.618 614.19 2336.75
-945.627 614.304 2337.19
-968.446 615.563 2341.98
-986.367 613.721 2334.97
-1002.97 611.153 2325.2
-1035.04 617.924 2350.96
-1047.92 613.195 2332.97
-1066.96 612.182 2329.12
-1090.41 613.693 2334.86
-1115.98 616.317 2344.85
-1136.54 616.131 2344.14
-1149.71 612.015 2328.48
-1183.58 618.871 2354.57
-1206.68 619.955 2358.69
-1214.05 613.054 2332.44
-1228.73 610.019 2320.89
-1249.19 609.908 2320.46
-1279.42 614.488 2337.89
-1305.09 616.768 2346.56
-1356.24 630.828 2400.05
1204.31 616.66 2428.53
1167.42 608.717 2397.25
1151.54 611.632 2408.73
1135.01 614.312 2419.28
1104.01 609.11 2398.8
1083.28 609.481 2400.26
1051.44 603.488 2376.66
1033.46 605.366 2384.06
1014.55 606.769 2389.58
990.64 605.179 2383.32
971.542 606.522 2388.61
947.992 605.083 2382.94
931.18 607.978 2394.34
905.496 605.081 2382.93
883.664 604.679 2381.35
860.481 603.311 2375.96
840.897 604.461 2380.49
818.659 603.713 2377.55
800.13 605.734 2385.5
781.425 607.727 2393.35
760.191 607.812 2393.69
735.467 605.029 2382.73
715.899 606.449 2388.32
691.311 603.573 2376.99
666.341 600.17 2363.59
649.225 603.852 2378.09
623.148 599.164 2359.63
602.382 599.435 2360.7
586.203 604.455 2380.47
563.15 602.499 2372.76
540.408 600.735 2365.81
519.622 601.09 2367.21
499.177 601.887 2370.35
476.152 599.505 2360.97
453.991 598.042 2355.21
435.584 601.621 2369.31
413.56 600.315 2364.16
392.551 600.421 2364.58
371.658 600.728 2365.79
348.161 596.608 2349.56
328.937 599.752 2361.94
306.716 597.488 2353.03
286.268 598.598 2357.4
265.831 599.911 2362.57
243.388 596.53 2349.26
222.991 598.002 2355.05
200.82 594.526 2341.36
179.769 593.947 2339.08
159.93 597.744 2354.04
139.529 600.272 2363.99
118.798 602.02 2370.88
96.9784 597.823 2354.35
76.042 598.253 2356.04
54.7771 595.44 2344.96
33.9592 597.011 2351.15
13.0031 597.307 2352.31
-7.98291 598.297 2356.21
-28.9528 597.519 2353.15
-49.7616 595.467 2345.07
-70.5963 594.847 2342.63
-91.5697 595.412 2344.85
-112.9 597.654 2353.68
-133.165 594.444 2341.04
-154.213 595.122 2343.71
-175.152 595.264 2344.27
-196.247 595.853 2346.59
-217.099 595.662 2345.84
-238.214 596.162 2347.81
-258.919 595.639 2345.75
-279.682 595.318 2344.48
-299.292 592.756 2334.39
-323.444 598.94 2358.75
-342.252 595.075 2343.53
-363.144 595.071 2343.51
-384.479 595.754 2346.2
-406.493 597.364 2352.54
-425.464 594.564 2341.51
-447.484 596.087 2347.51
-468.625 596.355 2348.57
-491.136 598.271 2356.11
-510.443 596.285 2348.29
-530.866 595.708 2346.02
-549.879 593.652 2337.92
-571.48 594.439 2341.02
-590.711 592.792 2334.54
-615.699 596.838 2350.47
-637.356 597.495 2353.06
-653.256 592.885 2334.9
-673.122 592.048 2331.61
-697.879 595.434 2344.94
-716.828 593.812 2338.55
-737.381 593.573 2337.61
-758.771 594.002 2339.3
-779.525 593.924 2338.99
-800.541 594.044 2339.46
-821.192 593.894 2338.87
-840.795 593.012 2335.4
-859.955 591.868 2330.9
-881.4 592.314 2332.65
-905.277 594.336 2340.62
-923.854 592.865 2334.82
-951.05 596.869 2350.59
-969.878 595.561 2345.44
-986.299 592.862 2334.81
-1011.76 595.596 2345.58
-1032.62 595.565 2345.46
-1051.82 594.6 2341.65
-1068.07 592.035 2331.55
-1097.31 596.63 2349.65
-1109.59 592.003 2331.43
-1133.87 593.835 2338.64
-1150.44 591.629 2329.96
-1178.64 595.383 2344.74
-1197.67 594.452 2341.07
-1215.24 592.84 2334.72
-1252.75 600.846 2366.25
-1254.09 591.53 2329.56
-1283.92 595.732 2346.11
-1314.39 600.095 2363.29
-1331.59 598.355 2356.44
1228.49 606.955 2477.29
1190.37 598.891 2444.38
1190.16 609.952 2489.53
1139.47 595.07 2428.79
1108.39 590.053 2408.31
1086.79 589.986 2408.04
1062.78 588.576 2402.28
1048.88 592.827 2419.63
1022.85 590.252 2409.12
995.42 586.747 2394.82
979.183 589.828 2407.39
952.605 586.678 2394.54
930.061 585.926 2391.46
909.937 586.698 2394.62
887.677 586.097 2392.16
864.409 584.785 2386.81
845.72 586.582 2394.14
821.788 584.742 2386.63
801.337 585.346 2389.1
784.425 588.64 2402.54
757.52 584.409 2385.27
734.871 583.312 2380.8
715.605 584.915 2387.34
695.372 585.801 2390.95
673.979 585.735 2390.68
647.934 581.49 2373.36
627.106 581.799 2374.62
607.18 582.995 2379.5
585.969 582.999 2379.52
564.271 582.501 2377.49
539.755 578.941 2362.95
