# .PCD v0.7 - Point Cloud Data file format
VERSION 0.7
FIELDS x y z
SIZE 4 4 4
TYPE F F F
COUNT 1 1 1
WIDTH 1915
HEIGHT 1
VIEWPOINT 0 0 0 1 0 0 0
POINTS 1915
DATA ascii
118.003 -10.9184 2355.02
97.2923 -10.9507 2361.97
75.9357 -10.9079 2352.75
54.8559 -10.8874 2348.33
33.9531 -10.8985 2350.73
13.0066 -10.9088 2352.94
-7.97528 -10.9135 2353.96
-28.8993 -10.8896 2348.8
-49.8545 -10.8926 2349.45
-70.7856 -10.8901 2348.91
-91.6608 -10.8821 2347.19
-111.969 -10.8223 2334.29
-133.515 -10.8821 2347.18
-153.898 -10.8438 2338.92
-175.313 -10.8786 2346.43
-196.429 -10.8895 2348.78
-218.123 -10.9272 2356.9
-238.326 -10.8901 2348.92
-258.917 -10.8754 2345.73
-279.548 -10.8644 2343.36
-301.641 -10.9078 2352.72
-321.835 -10.8813 2347.01
-343.059 -10.8908 2349.06
-363.22 -10.8673 2344
-383.91 -10.8614 2342.73
-405.569 -10.8821 2347.19
-425.128 -10.8472 2339.67
-446.397 -10.8572 2341.81
-470.016 -10.9208 2355.54
-491.589 -10.9336 2358.28
-512.748 -10.9364 2358.89
-529.684 -10.8525 2340.79
-551.998 -10.8809 2346.93
-572.004 -10.8635 2343.17
-594.357 -10.8903 2348.95
-616.004 -10.9027 2351.63
-637.39 -10.9099 2353.18
-663.606 -10.9967 2371.89
-680.376 -10.9264 2356.73
-697.705 -10.869 2344.36
-720.939 -10.9043 2351.96
-745.751 -10.9607 2364.14
-765.773 -10.9456 2360.89
-789.17 -10.9783 2367.93
-807.124 -10.9355 2358.7
-829.185 -10.9491 2361.64
-850.223 -10.9489 2361.59
-870.513 -10.9393 2359.52
-891.07 -10.9334 2358.24
-909.748 -10.9052 2352.17
-928.276 -10.8766 2346
-958.28 -10.9807 2368.46
-970.992 -10.8865 2348.13
-994.623 -10.9161 2354.52
-1021.46 -10.9789 2368.07
-1040.38 -10.9559 2363.09
-1061.22 -10.9535 2362.58
-1077.41 -10.9042 2351.94
-1096.77 -10.8882 2348.5
-1117.31 -10.8843 2347.66
-1147.38 -10.9716 2366.5
-1173.67 -11.0204 2377.01
-1208.58 -11.1469 2404.31
-1226.97 -11.1193 2398.34
-1247.98 -11.116 2397.63
-1247.4 -10.9237 2356.15
-1272.25 -10.9568 2363.29
-1278.89 -10.8345 2336.92
0 0 0
0 0 0
1494.86 -40.8521 3014.45
1475.37 -41.0574 3029.61
1339.13 -37.9611 2801.13
1290.24 -37.2703 2750.15
1323.55 -38.9731 2875.81
1290.35 -38.7463 2859.07
1170.76 -35.8638 2646.37
1140.19 -35.6457 2630.28
1110.98 -35.4617 2616.7
1109.54 -36.1754 2669.36
1057.12 -35.222 2599.02
1024.95 -34.9154 2576.39
998.142 -34.7817 2566.52
994.869 -35.481 2618.12
944.464 -34.4927 2545.2
925.112 -34.6177 2554.42
902.893 -34.639 2555.99
866.27 -34.0945 2515.82
862.351 -34.8425 2571.01
824.284 -34.2139 2524.62
799.928 -34.1351 2518.81
764.409 -33.5616 2476.49
716.325 -32.3859 2389.74
692.236 -32.2562 2380.17
668.53 -32.1368 2371.36
652.826 -32.4068 2391.28
628.066 -32.2303 2378.25
607.19 -32.2477 2379.54
584.1 -32.1445 2371.93
561.56 -32.065 2366.06
541.307 -32.115 2369.75
520.525 -32.1364 2371.33
498.238 -32.0628 2365.89
476.009 -31.9865 2360.27
455.736 -32.0407 2364.26
437.351 -32.2393 2378.92
413.857 -32.0623 2365.86
390.56 -31.8824 2352.59
370.88 -31.9942 2360.83
350.882 -32.0903 2367.93
328.53 -31.9696 2359.02
306.826 -31.8999 2353.87
286.155 -31.9351 2356.47
265.865 -32.0218 2362.87
244.826 -32.0254 2363.14
223.104 -31.932 2356.25
201.488 -31.836 2349.16
180.597 -31.8454 2349.86
159.816 -31.8794 2352.36
139.039 -31.9244 2355.68
118.244 -31.9805 2359.82
96.9141 -31.8852 2352.79
76.1554 -31.9769 2359.55
55.2484 -32.0525 2365.14
33.9215 -31.8276 2348.54
13.0553 -32.0066 2361.75
-7.95431 -31.8172 2347.77
-28.9338 -31.8691 2351.61
-50.105 -31.9999 2361.25
-70.5389 -31.7216 2340.72
-91.9655 -31.915 2354.99
-112.966 -31.9162 2355.08
-133.731 -31.8607 2350.98
-154.739 -31.8704 2351.7
-175.299 -31.7965 2346.25
-196.83 -31.8957 2353.57
-217.829 -31.8979 2353.73
-237.903 -31.7762 2344.75
-259.993 -31.9216 2355.48
-280.711 -31.8894 2353.1
-301.617 -31.8816 2352.53
-322.489 -31.8715 2351.78
-343.032 -31.8321 2348.87
-363.65 -31.8037 2346.78
-384.526 -31.7998 2346.49
-406.218 -31.8602 2350.95
-426.346 -31.7981 2346.37
-447.111 -31.7871 2345.55
-470.175 -31.9333 2356.34
-490.531 -31.8908 2353.21
-510.584 -31.833 2348.94
-539.353 -32.3017 2383.52
-562.945 -32.4365 2393.47
-579.785 -32.1868 2375.04
-602.897 -32.2905 2382.7
-621.025 -32.1293 2370.8
-641.786 -32.1104 2369.41
-668.674 -32.3896 2390.01
-691.696 -32.47 2395.94
-707.065 -32.1971 2375.81
-727.625 -32.1696 2373.78
-752.614 -32.3339 2385.9
-775.589 -32.4051 2391.15
-797.016 -32.4094 2391.48
-816.777 -32.3476 2386.91
-835.419 -32.2457 2379.39
-863.371 -32.4994 2398.11
-881.526 -32.3809 2389.37
-898.782 -32.2357 2378.66
-921.947 -32.3043 2383.72
-942.927 -32.2949 2383.03
-958.214 -32.0953 2368.3
-988.12 -32.3834 2389.55
-1015.96 -32.5929 2405.01
-1028.92 -32.3264 2385.35
-1043.13 -32.1094 2369.34
-1057.46 -31.9044 2354.21
-1091.5 -32.2904 2382.69
-1114.05 -32.3283 2385.49
-1135.72 -32.3397 2386.33
-1150.79 -32.1664 2373.54
-1172.71 -32.187 2375.06
-1209.4 -32.6054 2405.94
-1210.5 -32.0661 2366.14
-1246.52 -32.4547 2394.82
-1256.21 -32.1562 2372.79
-1311.03 -33.0038 2435.34
-1342.18 -33.2373 2452.57
0 0 0
0 0 0
1325.88 -60.0724 2673.7
1262 -58.2247 2591.46
1232.44 -57.9215 2577.96
1188.15 -56.9013 2532.56
1205.08 -58.8299 2618.4
1160.22 -57.7587 2570.72
1112.36 -56.4922 2514.35
1084.37 -56.2035 2501.5
1074.88 -56.8815 2531.68
1044.15 -56.4406 2512.05
1024.96 -56.6177 2519.94
996.352 -56.2709 2504.5
976.259 -56.4001 2510.25
956.73 -56.5687 2517.76
925.2 -56.0189 2493.28
907.958 -56.3283 2507.06
881.452 -56.0641 2495.3
856.706 -55.9011 2488.04
835.521 -55.9679 2491.02
810.821 -55.7966 2483.39
792.246 -56.0489 2494.62
761.644 -55.4403 2467.53
717.368 -53.7706 2393.22
695.204 -53.7068 2390.38
668.973 -53.3147 2372.93
652.465 -53.6973 2389.96
624.653 -53.144 2365.33
605.121 -53.2811 2371.43
583.772 -53.2624 2370.6
561.474 -53.1524 2365.7
542.783 -53.3885 2376.21
519.374 -53.161 2366.08
499.604 -53.3024 2372.38
477.122 -53.1542 2365.78
454.909 -53.0236 2359.97
436.017 -53.2863 2371.66
413.965 -53.1698 2366.48
390.008 -52.783 2349.26
371.752 -53.1678 2366.39
349.508 -52.9941 2358.66
328.478 -52.9939 2358.65
308.328 -53.1455 2365.4
286.472 -53.0036 2359.08
264.929 -52.9018 2354.55
245.199 -53.1757 2366.74
223.351 -52.9986 2358.86
202.31 -52.9961 2358.75
181.181 -52.9671 2357.45
160.401 -53.0459 2360.96
139.311 -53.0309 2360.3
118.175 -52.9894 2358.45
97.1454 -52.9884 2358.41
76.2077 -53.0507 2361.17
55.006 -52.9066 2354.76
33.9449 -52.8032 2350.16
13.0311 -52.9651 2357.37
-7.96997 -52.8533 2352.39
-28.8923 -52.7598 2348.23
-49.9273 -52.8642 2352.88
-71.0094 -52.9419 2356.34
-91.7947 -52.8134 2350.62
-112.757 -52.8154 2350.7
-133.596 -52.7684 2348.61
-154.124 -52.6276 2342.35
-176.165 -52.9756 2357.83
-196.382 -52.7594 2348.21
-217.794 -52.8749 2353.35
-238.168 -52.7402 2347.36
-258.855 -52.691 2345.17
-280.548 -52.8386 2351.74
-301.824 -52.8926 2354.14
-321.216 -52.6309 2342.49
-342.4 -52.677 2344.54
-364.971 -52.9187 2355.3
-384.79 -52.7568 2348.1
-406.155 -52.8127 2350.58
-427.174 -52.8203 2350.92
-446.854 -52.6695 2344.21
-470.494 -52.9778 2357.93
-489.843 -52.7975 2349.91
-520.274 -53.7773 2393.52
-551.848 -54.7934 2438.74
-569.955 -54.446 2423.28
-593.212 -54.598 2430.05
-614.577 -54.5714 2428.86
-640.185 -54.9104 2443.95
-661.293 -54.8538 2441.43
-685.815 -55.075 2451.27
-694.089 -54.0181 2404.23
-725.498 -54.771 2437.74
-746.563 -54.7219 2435.56
-766.941 -54.6267 2431.32
-801.079 -55.4898 2469.74
-806.068 -54.3417 2418.64
-836.729 -54.9389 2445.22
-860.14 -55.042 2449.8
-871.376 -54.3801 2420.35
-905.279 -55.1306 2453.75
-926.573 -55.0959 2452.21
-938.769 -54.5343 2427.21
-979.949 -55.6438 2476.59
-981.705 -54.5152 2426.36
-1003.65 -54.532 2427.11
-1023.99 -54.4628 2424.03
-1051.74 -54.7829 2438.27
-1068.78 -54.5427 2427.58
-1082.31 -54.1371 2409.53
-1115.09 -54.6911 2434.19
-1146.9 -55.1773 2455.83
-1160.92 -54.8054 2439.28
-1178.12 -54.5949 2429.91
-1207.08 -54.9269 2444.68
-1260.44 -56.3374 2507.46
-1261.34 -55.3953 2465.53
-1344.22 -58.024 2582.53
-1309.38 -55.5682 2473.22
-1349.73 -56.332 2507.22
0 0 0
0 0 0
0 0 0
1358.49 -85.9742 2739.45
1323.02 -85.2626 2716.78
1251.6 -82.164 2618.04
1202.35 -80.4312 2562.83
1194.39 -81.4464 2595.18
1181.78 -82.1782 2618.5
1122.65 -79.6399 2537.62
1096.87 -79.4117 2530.34
1073.49 -79.3508 2528.4
1062.35 -80.2119 2555.84
1037.18 -80.0278 2549.98
1000.95 -78.9633 2516.06
978.954 -78.9986 2517.18
957.239 -79.0587 2519.1
923.267 -78.085 2488.07
904.362 -78.3691 2497.13
885.259 -78.65 2506.07
860.102 -78.3936 2497.9
840.744 -78.6661 2506.59
819.332 -78.7561 2509.46
789.351 -78.0044 2485.5
767.963 -78.0829 2488
719.793 -75.362 2401.31
695.051 -75.0024 2389.85
670.994 -74.6964 2380.1
650.476 -74.7772 2382.67
627.576 -74.5803 2376.4
606.715 -74.6204 2377.68
586.269 -74.7165 2380.74
563.655 -74.5329 2374.89
541.101 -74.3433 2368.85
521.398 -74.546 2375.31
499.695 -74.4677 2372.81
478.198 -74.4145 2371.12
456.128 -74.2632 2366.3
435.374 -74.3219 2368.17
414.73 -74.4061 2370.85
394.664 -74.6088 2377.31
371.665 -74.2487 2365.83
350.745 -74.2854 2367
329.228 -74.1922 2364.03
307.739 -74.0931 2360.88
287.006 -74.1749 2363.48
265.09 -73.9395 2355.98
244.42 -74.0411 2359.22
223.958 -74.2308 2365.26
202.775 -74.1962 2364.16
181.75 -74.2183 2364.87
160.024 -73.9217 2355.41
139.455 -74.1512 2362.73
117.996 -73.9052 2354.89
97.3278 -74.1546 2362.83
75.9315 -73.8339 2352.62
55.1796 -74.1344 2362.19
34.1533 -74.2097 2364.59
13.028 -73.9653 2356.8
-7.99515 -74.0601 2359.82
-28.9345 -73.804 2351.66
-50.0002 -73.9498 2356.31
-70.872 -73.8075 2351.77
-91.9678 -73.9102 2355.05
-112.969 -73.9129 2355.13
-133.564 -73.6906 2348.05
-154.809 -73.8383 2352.76
-175.676 -73.7923 2351.29
-196.502 -73.7406 2349.64
-217.742 -73.8394 2352.79
-238.717 -73.8387 2352.77
-259.452 -73.7698 2350.57
-280.481 -73.7888 2351.18
-301.625 -73.8332 2352.59
-321.547 -73.5921 2344.91
-343.476 -73.8116 2351.91
-364.733 -73.8699 2353.76
-385.346 -73.7986 2351.49
-405.209 -73.5984 2345.11
-427.789 -73.887 2354.31
-448.248 -73.7995 2351.52
-470.385 -73.9837 2357.39
-492.79 -74.1926 2364.05
-526.1 -75.9586 2420.32
-552.163 -76.5806 2440.14
-574.402 -76.645 2442.19
-594.737 -76.46 2436.29
-620.078 -76.9089 2450.6
-640.295 -76.7133 2444.37
-663.497 -76.8766 2449.57
-686.739 -77.0339 2454.58
-704.748 -76.6125 2441.15
-725.338 -76.4886 2437.21
-749.329 -76.7201 2444.58
-769.179 -76.5266 2438.42
-789.803 -76.4186 2434.97
-816.956 -76.9311 2451.3
-836.872 -76.7533 2445.64
-856.976 -76.6012 2440.79
-874.916 -76.2681 2430.18
-899.899 -76.5501 2439.16
-926.025 -76.9139 2450.76
-946.145 -76.7734 2446.28
-973.126 -77.1835 2459.35
-994.625 -77.1503 2458.29
-1006.88 -76.417 2434.92
-1032.34 -76.6953 2443.79
-1048.36 -76.2762 2430.44
-1065.74 -75.9703 2420.69
-1102.57 -77.0358 2454.64
-1118.2 -76.6069 2440.97
-1136.52 -76.3757 2433.61
-1162.84 -76.6803 2443.31
-1184.44 -76.6682 2442.93
-1225.44 -77.8899 2481.85
-1226.97 -76.6043 2440.89
-1246.08 -76.4412 2435.7
-1291.35 -77.8617 2480.96
-1335.33 -79.1571 2522.23
-1347.11 -78.5332 2502.35
-1367.68 -78.433 2499.16
-1420.68 -80.1669 2554.41
-1405.03 -78.0329 2486.41
1458.48 -118.525 2941.09
1303.43 -107.864 2676.54
1240.93 -104.607 2595.73
1195.25 -102.671 2547.68
1186.98 -103.935 2579.06
1131.72 -101.055 2507.59
1124.37 -102.422 2541.51
1083.07 -100.688 2498.49
1074.37 -101.977 2530.48
1055.54 -102.339 2539.46
1018.45 -100.907 2503.92
995.133 -100.807 2501.44
977.234 -101.263 2512.76
958.037 -101.603 2521.2
918.836 -99.7871 2476.13
896.281 -99.7338 2474.81
879.683 -100.358 2490.29
862.134 -100.902 2503.81
833.83 -100.184 2485.97
814.134 -100.488 2493.53
782.77 -99.3297 2464.78
764.792 -99.8515 2477.73
718.435 -96.5891 2396.78
694.846 -96.2816 2389.15
672.151 -96.0824 2384.2
645.809 -95.3318 2365.58
629.94 -96.1286 2385.35
604.31 -95.4395 2368.25
585.854 -95.8748 2379.05
563.716 -95.7173 2375.14
542.272 -95.6702 2373.97
519.74 -95.4193 2367.75
496.866 -95.0818 2359.38
477.261 -95.3678 2366.47
456.177 -95.3709 2366.55
433.072 -94.9313 2355.64
413.224 -95.1973 2362.24
391.268 -94.9803 2356.86
371.239 -95.2328 2363.12
350.635 -95.3594 2366.26
329.538 -95.3593 2366.26
307.513 -95.0725 2359.14
286.193 -94.9775 2356.79
266.347 -95.3953 2367.15
244.136 -94.9653 2356.48
223.039 -94.9281 2355.56
201.942 -94.8834 2354.45
181.08 -94.9516 2356.14
159.837 -94.8117 2352.67
138.998 -94.9052 2354.99
118.509 -95.3131 2365.12
97.2557 -95.1506 2361.08
76.0039 -94.9 2354.86
54.8586 -94.6417 2348.45
33.9115 -94.6173 2347.85
12.9907 -94.7063 2350.06
-7.9452 -94.5058 2345.08
-28.8516 -94.4993 2344.92
-50.0266 -95.0085 2357.56
-70.6989 -94.5441 2346.03
-91.9385 -94.8771 2354.3
-112.454 -94.4785 2344.4
-134.146 -95.0375 2358.28
-154.497 -94.6242 2348.02
-175.471 -94.6457 2348.55
-196.357 -94.6196 2347.9
-217.305 -94.6262 2348.07
-238.036 -94.5452 2346.06
-259.26 -94.6573 2348.84
-280.156 -94.6418 2348.46
-302.039 -94.9385 2355.82
-322.533 -94.7885 2352.1
-343.513 -94.791 2352.16
-364.313 -94.7465 2351.06
-384.257 -94.4963 2344.85
-406.275 -94.7555 2351.28
-428.014 -94.9276 2355.55
-448.11 -94.7361 2350.8
-469.263 -94.7752 2351.77
-490.601 -94.8467 2353.54
-522.331 -96.8391 2402.98
-552.437 -98.3851 2441.34
-575.83 -98.6638 2448.26
-596.691 -98.5041 2444.3
-618.421 -98.4942 2444.05
-634.786 -97.6594 2423.34
-662.778 -98.6095 2446.91
-680.882 -98.0748 2433.64
-705.095 -98.4258 2442.35
-722.845 -97.8808 2428.83
-747.061 -98.2174 2437.18
-773.465 -98.8147 2452
-794.816 -98.7512 2450.43
-809.138 -97.8412 2427.85
-832.104 -97.9966 2431.7
-860.705 -98.7909 2451.41
-881.777 -98.7031 2449.23
-901.721 -98.4964 2444.1
-921.175 -98.2471 2437.92
-949.848 -98.9699 2455.85
-968.078 -98.5965 2446.59
-993.227 -98.9288 2454.83
-1015.39 -98.9556 2455.5
-1032.06 -98.4571 2443.13
-1055.6 -98.6218 2447.22
-1076.73 -98.5587 2445.65
-1100.23 -98.711 2449.43
-1122.07 -98.7104 2449.42
-1139.61 -98.3396 2440.21
-1173.27 -99.3479 2465.24
-1185.87 -98.5684 2445.89
-1203 -98.1864 2436.41
-1236.09 -99.0975 2459.02
-1252.59 -98.6705 2448.42
-1274.88 -98.706 2449.31
-1311.61 -99.8399 2477.44
-1324.51 -99.1521 2460.38
-1360.62 -100.196 2486.27
-1408.68 -102.072 2532.82
-1454.35 -103.718 2573.69
1358.6 -134.834 2739.66
1255.77 -126.911 2578.68
1229.76 -126.599 2572.35
1210.13 -126.947 2579.41
1186.17 -126.843 2577.31
1143.27 -124.671 2533.16
1121.98 -124.815 2536.09
1091.05 -123.87 2516.9
1067.37 -123.727 2513.99
1055.18 -124.938 2538.6
1022.24 -123.69 2513.24
1000.33 -123.752 2514.5
976.896 -123.624 2511.89
950.607 -123.119 2501.65
920.947 -122.144 2481.82
902.768 -122.68 2492.72
881.7 -122.842 2496
856.299 -122.392 2486.86
836.072 -122.677 2492.66
816.011 -123.003 2499.28
790.348 -122.48 2488.64
762.451 -121.569 2470.15
722.474 -118.622 2410.25
696.265 -117.823 2394.02
672.987 -117.485 2387.17
650.568 -117.281 2383.01
627.665 -116.972 2376.74
606.553 -116.987 2377.05
585.157 -116.947 2376.22
561.888 -116.515 2367.45
541.622 -116.696 2371.13
519.542 -116.486 2366.85
497.294 -116.218 2361.41
476.881 -116.374 2364.59
455.812 -116.378 2364.66
433.988 -116.179 2360.63
412.548 -116.068 2358.38
392.425 -116.337 2363.83
371.25 -116.305 2363.19
350.06 -116.265 2362.38
329.272 -116.362 2364.35
307.651 -116.158 2360.2
287.285 -116.433 2365.78
266.801 -116.699 2371.19
244.658 -116.223 2361.52
224.552 -116.716 2371.54
202.289 -116.074 2358.5
181.315 -116.109 2359.2
160.519 -116.281 2362.7
139.296 -116.15 2360.04
118.562 -116.452 2366.17
97.2582 -116.205 2361.14
76.1993 -116.193 2360.91
55.0001 -115.878 2354.51
34.0855 -116.143 2359.9
13.0241 -115.957 2356.11
-7.99618 -116.155 2360.13
-28.9261 -115.704 2350.98
-49.5617 -114.95 2335.65
-70.9415 -115.857 2354.08
-91.785 -115.674 2350.37
-112.84 -115.777 2352.45
-133.696 -115.674 2350.36
-154.436 -115.513 2347.09
-175.7 -115.735 2351.61
-197.028 -115.948 2355.93
-217.68 -115.76 2352.11
-239.052 -115.955 2356.07
-258.61 -115.309 2342.95
-280.52 -115.73 2351.5
-301.54 -115.751 2351.93
-322.135 -115.617 2349.2
-344.245 -116.009 2357.17
-363.712 -115.517 2347.18
-384.916 -115.6 2348.86
-405.437 -115.481 2346.43
-427.492 -115.788 2352.67
-447.938 -115.651 2349.89
-470.256 -115.988 2356.74
-492.248 -116.219 2361.44
-520.647 -117.882 2395.23
-546.937 -118.955 2417.04
-574.469 -120.207 2442.47
-594.098 -119.774 2433.67
-619.415 -120.478 2447.98
-633.537 -119.031 2418.57
-657.831 -119.527 2428.65
-686.282 -120.723 2452.95
-705.112 -120.204 2442.42
-726 -120.058 2439.43
-742.397 -119.198 2421.97
-769.879 -120.117 2440.64
-793.297 -120.368 2445.74
-815.796 -120.471 2447.83
-834.395 -120.007 2438.4
-857.09 -120.141 2441.12
-876.052 -119.758 2433.33
-890.686 -118.816 2414.19
-925.091 -120.493 2448.28
-940.51 -119.678 2431.71
-971.42 -120.826 2455.03
-992.513 -120.729 2453.07
-1015.81 -120.898 2456.51
-1024.71 -119.384 2425.74
-1048.52 -119.633 2430.8
-1075.57 -120.234 2443.01
-1103.55 -120.913 2456.82
-1115.46 -119.839 2434.99
-1139.24 -120.057 2439.42
-1163.02 -120.267 2443.69
-1197.69 -121.576 2470.27
-1212.79 -120.885 2456.24
-1235.69 -120.983 2458.24
-1238.55 -119.149 2420.97
-1280.48 -121.073 2460.06
-1322.89 -122.977 2498.75
-1355.83 -123.952 2518.55
-1367.88 -123.016 2499.53
-1382.51 -122.339 2485.78
-1526.66 -132.962 2701.64
1457.46 -170.849 2939.02
1412.25 -168.581 2900
1290.44 -156.913 2699.29
1255.47 -155.562 2676.04
1231.21 -155.511 2675.17
1215.52 -156.563 2693.26
1159.1 -152.304 2620.01
1117.22 -149.82 2577.28
1112.6 -152.334 2620.52
1050.16 -146.869 2526.5
1048.15 -149.802 2576.96
1022.06 -149.347 2569.13
973.234 -145.472 2502.47
962.98 -147.316 2534.2
936.54 -146.714 2523.84
917.688 -147.3 2533.92
885.65 -145.745 2507.18
872.187 -147.247 2533
840.794 -145.72 2506.74
816.279 -145.334 2500.1
796.05 -145.712 2506.6
779.788 -146.858 2526.32
717.571 -139.16 2393.9
699.304 -139.775 2404.48
674.857 -139.155 2393.8
648.965 -138.186 2377.14
627.13 -138.045 2374.71
607.763 -138.456 2381.78
585.609 -138.239 2378.06
565.785 -138.577 2383.86
542.488 -138.057 2374.92
520.804 -137.922 2372.6
497.272 -137.266 2361.31
478.636 -137.962 2373.29
455.225 -137.283 2361.61
435.052 -137.562 2366.41
414.421 -137.718 2369.09
394.205 -138.035 2374.55
370.922 -137.254 2361.1
350.043 -137.321 2362.26
330.357 -137.895 2372.14
308.41 -137.54 2366.02
287.03 -137.403 2363.67
266.452 -137.66 2368.08
244.44 -137.155 2359.41
223.128 -136.986 2356.5
202.449 -137.211 2360.36
181.458 -137.252 2361.06
160.104 -136.992 2356.6
139.465 -137.359 2362.91
118.655 -137.657 2368.04
97.0886 -137.017 2357.03
75.8409 -136.597 2349.81
55.0904 -137.095 2358.38
34.0837 -137.176 2359.77
13.0234 -136.956 2355.99
-7.95855 -136.552 2349.02
-28.9 -136.542 2348.86
-49.9829 -136.928 2355.49
-70.7875 -136.549 2348.97
-92.0529 -137.029 2357.23
-112.93 -136.86 2354.32
-134.086 -137.028 2357.22
-155.084 -137.011 2356.93
-175.839 -136.811 2353.48
-196.768 -136.773 2352.83
-217.853 -136.84 2353.98
-238.032 -136.377 2346.01
-258.16 -135.961 2338.87
-280.979 -136.92 2355.35
-300.509 -136.253 2343.89
-322.391 -136.67 2351.07
-343.94 -136.904 2355.08
-363.849 -136.496 2348.06
-386.19 -136.994 2356.64
-406.099 -136.624 2350.26
-426.581 -136.472 2347.66
-448.667 -136.824 2353.72
-469.65 -136.824 2353.7
-492.227 -137.268 2361.34
-526.772 -140.876 2423.41
-554.18 -142.366 2449.05
-573.752 -141.807 2439.43
-597.855 -142.367 2449.07
-619.137 -142.24 2446.88
-639.579 -141.935 2441.63
-660.41 -141.734 2438.17
-684.096 -142.138 2445.13
-704.802 -141.918 2441.34
-725.112 -141.634 2436.45
-745.878 -141.452 2433.32
-770.446 -141.982 2442.43
-792.03 -141.947 2441.84
-813.868 -141.959 2442.04
-833.715 -141.632 2436.41
-858.38 -142.119 2444.79
-880.755 -142.212 2446.4
-904.483 -142.514 2451.59
-921.881 -141.828 2439.79
-944.442 -141.949 2441.88
-969.182 -142.385 2449.38
-991.731 -142.488 2451.14
-1003.56 -141.079 2426.9
-1031.29 -141.917 2441.31
-1051.66 -141.728 2438.07
-1078.36 -142.383 2449.34
-1093.7 -141.543 2434.89
-1118.34 -141.915 2441.29
-1137.52 -141.593 2435.75
-1162.99 -142.052 2443.64
-1173.27 -140.672 2419.9
-1207.46 -142.157 2445.44
-1223.56 -141.497 2434.1
-1254.91 -142.593 2452.95
-1274 -142.283 2447.62
-1292.49 -141.917 2441.33
-1317.46 -142.263 2447.27
-1332.38 -141.53 2434.66
-1402.88 -146.63 2522.4
-1412.12 -145.267 2498.94
0 0 0
0 0 0
1483.16 -208.008 3102.42
1358.34 -194.122 2895.31
1335.81 -194.6 2902.44
1356.62 -201.536 3005.89
1258.71 -190.76 2845.16
1156 -178.796 2666.73
1117.54 -176.478 2632.15
1146.58 -184.948 2758.48
1075.11 -177.22 2643.22
1031.17 -173.787 2592.01
1017.98 -175.498 2617.54
988.037 -174.332 2600.15
944.416 -170.639 2545.07
923.014 -170.878 2548.63
906.154 -171.991 2565.23
899.372 -175.124 2611.95
841.643 -168.239 2509.27
834.144 -171.293 2554.82
815.887 -172.248 2569.06
774.683 -168.273 2509.78
716.059 -160.165 2388.85
691.421 -159.396 2377.37
673.427 -160.157 2388.73
649.155 -159.427 2377.83
630.117 -159.976 2386.02
608.433 -159.868 2384.41
586.734 -159.748 2382.63
562.722 -158.966 2370.96
542.424 -159.213 2374.64
520.956 -159.122 2373.29
498.447 -158.693 2366.88
477.394 -158.709 2367.13
455.547 -158.451 2363.28
436.442 -159.168 2373.97
414.37 -158.821 2368.79
392.358 -158.46 2363.42
370.876 -158.285 2360.81
350.145 -158.429 2362.95
328.525 -158.163 2358.99
307.21 -158.018 2356.81
287.233 -158.59 2365.35
265.078 -157.955 2355.88
244.614 -158.304 2361.09
224.228 -158.775 2368.11
202.679 -158.435 2363.04
180.746 -157.681 2351.8
160.218 -158.116 2358.28
138.918 -157.804 2353.63
117.94 -157.813 2353.77
97.199 -158.211 2359.71
75.9919 -157.862 2354.49
54.9433 -157.7 2352.08
34.0792 -158.195 2359.46
13.0383 -158.142 2358.67
-7.97441 -157.809 2353.7
-29.0435 -158.266 2360.52
-50.0398 -158.109 2358.18
-71.0787 -158.14 2358.64
-92.1576 -158.225 2359.91
-112.724 -157.563 2350.03
-133.728 -157.623 2350.93
-154.474 -157.404 2347.66
-175.519 -157.506 2349.19
-196.41 -157.463 2348.55
-217.733 -157.741 2352.69
-238.908 -157.872 2354.65
-259.551 -157.659 2351.47
-280.47 -157.634 2351.09
-301.106 -157.463 2348.55
-322.622 -157.745 2352.75
-343.176 -157.551 2349.85
-364.262 -157.61 2350.73
-385.013 -157.524 2349.46
-406.56 -157.757 2352.93
-428.849 -158.241 2360.14
-448.239 -157.659 2351.47
-468.618 -157.462 2348.53
-492.575 -158.433 2363.01
-526.281 -162.331 2421.15
-554.988 -164.441 2452.62
-582.817 -166.14 2477.97
-601.801 -165.287 2465.23
-625.423 -165.722 2471.72
-643.292 -164.655 2455.81
-665.025 -164.614 2455.21
-694.767 -166.496 2483.27
-709.146 -164.694 2456.39
-732.712 -165.069 2461.98
-751.64 -164.408 2452.12
-781.765 -166.164 2478.32
-793.787 -164.081 2447.26
-821.349 -165.237 2464.49
-839.439 -164.476 2453.14
-865.89 -165.35 2466.18
-887.083 -165.202 2463.97
-905.076 -164.48 2453.2
-927.43 -164.565 2454.47
-961.627 -166.7 2486.31
-975.693 -165.327 2465.83
-1001.36 -165.938 2474.95
-1017.96 -165.051 2461.72
-1037.02 -164.592 2454.87
-1066.58 -165.786 2472.67
-1076.65 -163.961 2445.46
-1104.65 -164.886 2459.26
-1134.04 -165.979 2475.56
-1166.99 -167.54 2498.85
-1174.05 -165.396 2466.87
-1200.61 -166.028 2476.29
-1233.88 -167.547 2498.95
-1253.06 -167.133 2492.78
-1262.08 -165.403 2466.98
-1300.64 -167.537 2498.79
-1313.88 -166.393 2481.73
-1334.87 -166.251 2479.62
-1409.44 -172.679 2575.49
-1503.21 -181.215 2702.8
-1495.5 -177.441 2646.51
1522.99 -233.296 3071.18
1476.85 -230.369 3032.66
1339.97 -212.915 2802.88
1227.12 -198.691 2615.63
1285.89 -212.239 2793.98
1203.24 -202.521 2666.05
1182.97 -203.122 2673.96
1140.7 -199.892 2631.44
1130.97 -202.349 2663.79
1077.42 -196.904 2592.1
1068.13 -199.484 2626.07
1033.92 -197.423 2598.93
1005.13 -196.325 2584.49
976.505 -195.209 2569.8
942.501 -192.939 2539.91
925.213 -194.063 2554.7
916.274 -197.038 2593.87
893.016 -197.009 2593.49
856.705 -194.023 2554.18
823.45 -191.584 2522.07
801.831 -191.791 2524.8
773.352 -190.322 2505.46
717.36 -181.794 2393.19
694.916 -181.505 2389.39
671.137 -180.838 2380.6
649.822 -180.813 2380.28
629.743 -181.142 2384.6
608.81 -181.239 2385.89
584.714 -180.368 2374.42
561.693 -179.776 2366.62
542.985 -180.571 2377.1
520.641 -180.173 2371.85
499.172 -180.057 2370.33
477.3 -179.779 2366.67
457.534 -180.305 2373.59
436.354 -180.298 2373.5
412.396 -179.083 2357.51
393.422 -180.019 2369.83
370.956 -179.373 2361.32
350.658 -179.76 2366.42
328.183 -179.009 2356.53
307.534 -179.219 2359.3
286.693 -179.341 2360.9
266.139 -179.675 2365.3
244.768 -179.469 2362.58
222.959 -178.871 2354.71
202.551 -179.39 2361.55
181.091 -178.99 2356.28
160.388 -179.331 2360.77
139.183 -179.129 2358.11
118.315 -179.367 2361.24
97.3426 -179.515 2363.19
76.0403 -178.968 2355.99
55.2578 -179.693 2365.54
33.9423 -178.512 2349.99
13.0024 -178.679 2352.19
-7.95246 -178.302 2347.22
-28.9515 -178.744 2353.04
-50.0715 -179.248 2359.67
-71.1539 -179.358 2361.13
-91.9436 -178.849 2354.43
-112.605 -178.326 2347.55
-134.323 -179.378 2361.39
-154.703 -178.601 2351.16
-175.78 -178.717 2352.68
-196.12 -178.139 2345.08
-217.779 -178.755 2353.19
-238.859 -178.829 2354.17
-258.951 -178.212 2346.03
-280.059 -178.333 2347.64
-301.299 -178.517 2350.05
-322.557 -178.686 2352.27
-342.53 -178.166 2345.43
-364.19 -178.533 2350.26
-386.549 -179.184 2358.83
-406.649 -178.775 2353.44
-426.624 -178.353 2347.9
-449.085 -178.962 2355.91
-469.307 -178.664 2351.99
-489.63 -178.428 2348.89
-522.996 -182.77 2406.04
-551.132 -185.014 2435.58
-577.444 -186.498 2455.12
-598.366 -186.197 2451.16
-613.797 -184.269 2425.77
-636.593 -184.608 2430.23
-660.46 -185.225 2438.35
-687.371 -186.629 2456.84
-706.517 -185.903 2447.28
-732.854 -187.056 2462.46
-754.712 -187.032 2462.14
-775.013 -186.634 2456.91
-799.794 -187.307 2465.78
-825.926 -188.253 2478.22
-836.056 -185.597 2443.25
-866.392 -187.447 2467.61
-885.909 -186.923 2460.71
-895.939 -184.471 2428.43
-928.325 -186.629 2456.84
-958.217 -188.198 2477.49
-978.461 -187.843 2472.83
-1005.68 -188.815 2485.62
-1023.89 -188.089 2476.06
-1043.83 -187.705 2471.01
-1052.58 -185.365 2440.21
-1078.49 -186.082 2449.64
-1095.48 -185.262 2438.85
-1127.21 -186.918 2460.65
-1170.18 -190.339 2505.68
-1168.3 -186.472 2454.78
-1185.63 -185.759 2445.39
-1232.36 -189.595 2495.88
-1241.22 -187.57 2469.23
-1317.34 -195.604 2574.99
-1356.65 -197.99 2606.4
-1405.2 -201.622 2654.22
-1373 -193.739 2550.44
0 0 0
0 0 0
0 0 0
1352.9 -231.564 2728.18
1290.03 -224.845 2649.02
1226.94 -217.839 2566.47
1195.07 -216.212 2547.3
1196.76 -220.712 2600.32
1144.7 -215.281 2536.34
1120.55 -214.987 2532.87
1095.21 -214.446 2526.5
1066 -213.11 2510.76
1050.75 -214.567 2527.93
1023.16 -213.513 2515.5
998.275 -212.989 2509.34
977.046 -213.239 2512.28
950.048 -212.212 2500.17
929.425 -212.593 2504.67
906.64 -212.487 2503.42
888.136 -213.404 2514.22
858.697 -211.673 2493.82
834.285 -211.122 2487.33
813.638 -211.519 2492.02
793.468 -212.067 2498.47
761.384 -209.37 2466.69
718.895 -203.566 2398.31
693.346 -202.35 2383.99
673.398 -202.744 2388.63
652.279 -202.799 2389.27
629.833 -202.431 2384.94
608.156 -202.294 2383.33
585.751 -201.895 2378.63
563.385 -201.481 2373.75
542.174 -201.463 2373.54
521.996 -201.844 2378.03
499.858 -201.467 2373.59
478.549 -201.405 2372.86
457.408 -201.412 2372.94
434.252 -200.489 2362.06
414.859 -201.297 2371.59
390.538 -199.674 2352.46
371.626 -200.788 2365.58
349.976 -200.467 2361.81
329.329 -200.718 2364.76
308.22 -200.701 2364.57
286.492 -200.25 2359.25
265.617 -200.371 2360.67
244.493 -200.308 2359.93
223.741 -200.566 2362.97
203.089 -200.978 2367.82
181.421 -200.363 2360.58
160.206 -200.153 2358.1
139.553 -200.687 2364.4
118.43 -200.615 2363.55
97.5195 -200.949 2367.49
76.0505 -200 2356.3
55.0091 -199.88 2354.89
33.9326 -199.406 2349.31
12.9987 -199.593 2351.51
-7.97043 -199.68 2352.53
-28.9554 -199.75 2353.36
-49.9725 -199.89 2355
-71.1032 -200.267 2359.45
-91.9949 -199.952 2355.74
-112.859 -199.706 2352.84
-133.605 -199.361 2348.77
-155.117 -200.097 2357.44
-174.765 -198.539 2339.09
-197.643 -200.592 2363.28
-217.534 -199.511 2350.54
-238.59 -199.594 2351.51
-259.752 -199.745 2353.3
-280.098 -199.293 2347.97
-300.201 -198.742 2341.48
-322.467 -199.602 2351.62
-343.587 -199.692 2352.67
-363.936 -199.348 2348.62
-386.119 -199.992 2356.21
-406.877 -199.869 2354.76
-427.043 -199.482 2350.2
-448.403 -199.663 2352.33
-468.986 -199.497 2350.38
-492.347 -200.476 2361.92
-528.144 -206.232 2429.72
-552.298 -207.166 2440.73
-576.369 -208 2450.55
-598.2 -207.994 2450.48
-624.876 -209.613 2469.56
-643.492 -208.511 2456.57
-664.451 -208.215 2453.09
-684.769 -207.744 2447.54
-707.988 -208.155 2452.38
-732.09 -208.793 2459.89
-752.468 -208.362 2454.82
-771.513 -207.598 2445.81
-792.82 -207.467 2444.27
-815.941 -207.805 2448.26
-836.491 -207.488 2444.52
-859.238 -207.718 2447.24
-881.298 -207.775 2447.91
-900.208 -207.104 2440
-921.756 -207.058 2439.46
-949.352 -208.341 2454.57
-977.858 -209.761 2471.31
-996.466 -209.043 2462.84
-1024.03 -210.193 2476.39
-1038.16 -208.596 2457.58
-1057.87 -208.163 2452.47
-1075.03 -207.256 2441.79
-1110.36 -209.817 2471.96
-1129.46 -209.273 2465.55
-1142.92 -207.724 2447.3
-1176.61 -209.842 2472.26
-1203.65 -210.717 2482.56
-1244.46 -213.927 2520.38
-1252.16 -211.432 2490.99
-1254.38 -208.115 2451.91
-1296.04 -211.344 2489.95
-1278.44 -204.964 2414.78
-1356.64 -213.899 2520.05
0 0 0
0 0 0
0 0 0
1324.15 -250.451 2670.2
1278.73 -246.288 2625.82
1253.66 -245.962 2622.35
1184.14 -236.738 2524
1201.4 -244.841 2610.39
1166.08 -242.338 2583.71
1128.27 -239.207 2550.33
1102.01 -238.443 2542.18
1073.07 -237.058 2527.42
1053.1 -237.636 2533.58
1023.59 -236.04 2516.56
1011.59 -238.501 2542.8
986.485 -237.914 2536.55
967.084 -238.708 2545.01
932.938 -235.812 2514.14
909.059 -235.433 2510.1
893.484 -237.24 2529.36
864.9 -235.597 2511.84
841.611 -235.347 2509.17
819.24 -235.347 2509.17
796.215 -235.154 2507.12
768.766 -233.605 2490.61
718.945 -224.964 2398.48
693.397 -223.622 2384.16
672.905 -223.876 2386.88
650.487 -223.486 2382.71
627.079 -222.717 2374.52
609.921 -224.192 2390.24
583.886 -222.393 2371.06
564.114 -222.933 2376.82
541.766 -222.458 2371.76
520.322 -222.331 2370.4
500.711 -223.009 2377.64
479.367 -222.942 2376.92
459.133 -223.408 2381.89
435.18 -222.022 2367.11
412.138 -220.984 2356.04
393.01 -222.044 2367.35
370.721 -221.339 2359.83
349.705 -221.354 2359.98
330.035 -222.277 2369.83
307.337 -221.148 2357.79
287.469 -222.039 2367.29
266.857 -222.452 2371.69
244.405 -221.268 2359.07
223.378 -221.275 2359.14
203.015 -222.008 2366.96
181.202 -221.142 2357.73
160.553 -221.656 2363.2
139.385 -221.5 2361.54
118.636 -222.073 2367.65
96.8689 -220.576 2351.69
76.1189 -221.208 2358.43
54.9656 -220.702 2353.03
33.992 -220.739 2353.43
13.049 -221.412 2360.6
-7.99449 -221.32 2359.63
-28.9693 -220.838 2354.49
-50.0175 -221.086 2357.13
-70.9272 -220.755 2353.61
-91.8835 -220.688 2352.89
-113.057 -221.07 2356.96
-134.009 -220.968 2355.87
-155.191 -221.221 2358.57
-175.814 -220.712 2353.14
-197.239 -221.21 2358.45
-218.189 -221.132 2357.62
-238.604 -220.573 2351.66
-259.55 -220.554 2351.46
-280.706 -220.704 2353.06
-300.094 -219.54 2340.65
-322.217 -220.398 2349.79
-344.041 -220.959 2355.78
-365.18 -221.041 2356.65
-385.017 -220.369 2349.49
-405.547 -220.142 2347.07
-426.716 -220.268 2348.4
-447.316 -220.101 2346.63
-470.188 -221.018 2356.4
-491.567 -221.184 2358.18
-529.438 -228.453 2435.68
-551.883 -228.755 2438.9
-575.026 -229.313 2444.84
-597.754 -229.67 2448.65
-619.038 -229.467 2446.49
-640.745 -229.429 2446.08
-660.838 -228.835 2439.75
-687.755 -230.567 2458.21
-704.985 -229.044 2441.97
-727.297 -229.214 2443.79
-750.757 -229.725 2449.24
-769.759 -228.883 2440.25
-794.404 -229.718 2449.16
-817.88 -230.179 2454.08
-838.801 -229.916 2451.28
-855.664 -228.583 2437.06
-881.019 -229.527 2447.13
-905.788 -230.278 2455.13
-920.766 -228.562 2436.84
-947.262 -229.719 2449.17
-967.659 -229.378 2445.53
-994.295 -230.498 2457.47
-1014.58 -230.129 2453.55
-1033.97 -229.578 2447.67
-1052.43 -228.846 2439.86
-1073.11 -228.618 2437.43
-1093.3 -228.294 2433.98
-1117.51 -228.81 2439.48
-1145.97 -230.156 2453.84
-1174.14 -231.397 2467.06
-1182.88 -228.833 2439.73
-1207.93 -229.459 2446.4
-1227.2 -228.984 2441.34
-1257.22 -230.498 2457.47
-1319.61 -237.793 2535.25
-1307.96 -231.723 2470.54
-1337.86 -233.095 2485.16
-1387.99 -237.889 2536.28
-1397.58 -235.692 2512.86
-1486.71 -246.768 2630.94
1340.92 -277.732 2704.03
1252.55 -264.177 2572.05
1244.18 -267.307 2602.53
1197.67 -262.204 2552.85
1190.13 -265.6 2585.91
1148.04 -261.268 2543.73
1117.39 -259.417 2525.71
1096.05 -259.698 2528.45
1072.28 -259.401 2525.56
1051.55 -259.844 2529.87
1015.7 -256.485 2497.17
1010.46 -260.881 2539.97
981.05 -259.094 2522.57
956.45 -258.524 2517.02
925.993 -256.306 2495.42
908.023 -257.519 2507.23
881.522 -256.313 2495.5
864.877 -257.985 2511.77
836.207 -256.063 2493.06
813.964 -256.059 2493.01
792.574 -256.33 2495.65
762.58 -253.753 2470.56
716.944 -245.663 2391.8
692.843 -244.683 2382.26
670.744 -244.37 2379.21
650.224 -244.63 2381.75
629.619 -244.875 2384.14
605.98 -243.916 2374.8
586.739 -244.723 2382.65
565.489 -244.719 2382.62
541.763 -243.603 2371.75
521.384 -243.962 2375.24
501.115 -244.405 2379.56
478.181 -243.53 2371.03
457.054 -243.537 2371.1
436.074 -243.626 2371.97
414.877 -243.598 2371.69
393.33 -243.349 2369.28
370.408 -242.173 2357.83
348.971 -241.886 2355.03
330.166 -243.502 2370.77
307.846 -242.571 2361.7
286.384 -242.228 2358.36
265.516 -242.373 2359.77
244.708 -242.602 2362
224.124 -243.117 2367.02
202.33 -242.291 2358.97
181.884 -243.075 2366.61
160.819 -243.128 2367.12
139.206 -242.243 2358.51
118.483 -242.87 2364.61
97.3173 -242.661 2362.58
76.0209 -241.923 2355.39
55.0341 -241.982 2355.97
34.0057 -241.818 2354.37
13.0486 -242.453 2360.55
-7.96733 -241.535 2351.62
-28.9931 -242.029 2356.43
-50.0797 -242.402 2360.06
-71.0755 -242.245 2358.53
-91.9204 -241.763 2353.83
-113.102 -242.181 2357.9
-133.272 -240.641 2342.91
-154.535 -241.225 2348.59
-175.663 -241.484 2351.11
-196.405 -241.214 2348.49
-217.91 -241.842 2354.6
-238.6 -241.536 2351.62
-259.436 -241.414 2350.43
-281.291 -242.187 2357.96
-300.977 -241.116 2347.53
-322.213 -241.345 2349.76
-343.174 -241.353 2349.84
-364.719 -241.747 2353.67
-385.496 -241.617 2352.41
-406.561 -241.671 2352.94
-426.358 -241.003 2346.43
-448.059 -241.424 2350.53
-467.849 -240.823 2344.68
-493.189 -243.008 2365.96
-524.984 -248.065 2415.18
-550.329 -249.795 2432.03
-571.364 -249.511 2429.27
-595.141 -250.403 2437.95
-620.486 -251.867 2452.21
-638.964 -250.54 2439.28
-659.783 -250.188 2435.85
-682.108 -250.41 2438.02
-706.076 -251.204 2445.75
-723.027 -249.529 2429.44
-746.369 -250.092 2434.93
-773.343 -251.807 2451.62
-791.938 -250.773 2441.55
-815.982 -251.474 2448.38
-830.416 -249.255 2426.77
-853.683 -249.732 2431.42
-875.284 -249.71 2431.2
-901.306 -250.919 2442.98
-919.011 -249.811 2432.19
-947.264 -251.556 2449.17
-966.933 -250.993 2443.69
-984.218 -249.85 2432.57
-1006.22 -249.928 2433.33
-1030.89 -250.651 2440.36
-1053.24 -250.791 2441.73
-1072.33 -250.168 2435.66
-1096.18 -250.654 2440.4
-1122.52 -251.682 2450.4
-1137.99 -250.279 2436.75
-1172.46 -253.029 2463.52
-1191.61 -252.434 2457.72
-1215.03 -252.746 2460.77
-1223.22 -249.937 2433.41
-1262.25 -253.418 2467.3
-1277.33 -252.053 2454.01
-1304.74 -253.126 2464.46
-1319.49 -251.747 2451.04
-1363.15 -255.841 2490.9
-1465.88 -270.71 2635.66
-1433.29 -260.517 2536.42
1360.68 -306.288 2743.87
1280.78 -293.58 2630.02
1246.66 -291.089 2607.71
1208.58 -287.56 2576.09
1188.78 -288.329 2582.99
1143.86 -282.914 2534.48
1125.76 -284.049 2544.64
1098.74 -282.933 2534.65
1074.14 -282.408 2529.95
1037.34 -278.583 2495.68
1021.62 -280.374 2511.72
1003.75 -281.645 2523.1
982.408 -281.975 2526.06
953.187 -280.007 2508.43
926.953 -278.843 2498.01
910.312 -280.579 2513.55
887.075 -280.318 2511.22
863.498 -279.933 2507.77
833.915 -277.528 2486.23
813.886 -278.259 2492.78
793.098 -278.764 2497.3
758.402 -274.269 2457.03
717.75 -267.288 2394.49
695.016 -266.756 2389.73
673.934 -266.845 2390.53
647.557 -264.775 2371.98
626.778 -264.931 2373.38
608.638 -266.252 2385.21
587.881 -266.483 2387.28
562.687 -264.645 2370.81
541.498 -264.619 2370.58
519.849 -264.359 2368.25
500.252 -265.163 2375.46
478.336 -264.756 2371.8
456.45 -264.327 2367.97
434.598 -263.878 2363.94
412.271 -263.08 2356.79
393.783 -264.778 2372
371.917 -264.268 2367.44
349.814 -263.518 2360.72
329.174 -263.845 2363.65
309.231 -264.813 2372.32
286.956 -263.781 2363.07
265.936 -263.828 2363.5
244.684 -263.635 2361.77
224.101 -264.195 2366.78
201.801 -262.634 2352.8
181.409 -263.485 2360.42
160.061 -262.988 2355.97
139.602 -264.021 2365.22
118.073 -263.039 2356.43
96.8574 -262.48 2351.41
76.0774 -263.119 2357.14
55.1447 -263.516 2360.7
34.0884 -263.449 2360.1
13.0418 -263.361 2359.31
-7.98338 -263.031 2356.35
-28.9169 -262.347 2350.23
-50.0113 -263.085 2356.83
-70.6492 -261.695 2344.38
-91.6398 -261.947 2346.65
-112.614 -262.069 2347.74
-133.767 -262.502 2351.62
-154.52 -262.139 2348.37
-176.608 -263.859 2363.77
-196.387 -262.128 2348.27
-217.614 -262.479 2351.41
-238.678 -262.588 2352.39
-258.867 -261.795 2345.28
-280.558 -262.525 2351.82
-300.95 -262.023 2347.32
-321.104 -261.393 2341.68
-342.857 -262.061 2347.67
-363.012 -261.503 2342.66
-384.82 -262.13 2348.28
-405.511 -261.971 2346.86
-426.679 -262.121 2348.2
-448.954 -262.904 2355.22
-470.731 -263.34 2359.12
-491.931 -263.429 2359.92
-521.554 -267.837 2399.41
-551.371 -271.992 2436.63
-575.177 -272.98 2445.48
-592.253 -270.818 2426.12
-618.715 -272.95 2445.21
-638.903 -272.262 2439.05
-655.823 -270.273 2421.23
-677.759 -270.413 2422.48
-701.048 -271.066 2428.34
-721.265 -270.528 2423.52
-747.764 -272.31 2439.48
-773.277 -273.641 2451.41
-791.874 -272.52 2441.36
-812.144 -272.018 2436.87
-834.864 -272.342 2439.77
-857.248 -272.543 2441.57
-879.605 -272.725 2443.2
-893.671 -270.39 2422.28
-906.65 -267.845 2399.48
-940.027 -271.303 2430.46
-965.41 -272.351 2439.85
-983.418 -271.318 2430.59
-1010.73 -272.84 2444.23
-1034.32 -273.315 2448.48
-1039.39 -268.979 2409.64
-1071.08 -271.567 2432.82
-1096.94 -272.603 2442.11
-1122.47 -273.517 2450.29
-1132.05 -270.586 2424.04
-1171.55 -274.781 2461.62
-1184.62 -272.737 2443.3
-1198.24 -270.892 2426.77
-1223.19 -271.626 2433.35
-1266.74 -276.396 2476.08
-1273.62 -273.137 2446.89
-1295.4 -273.128 2446.81
-1343.05 -278.486 2494.81
-1371.24 -279.698 2505.67
-1472.07 -295.453 2646.8
-1535.09 -303.241 2716.57
1549.05 -376.541 3123.73
1482.99 -367.083 3045.26
1363.11 -343.7 2851.29
1302.99 -334.785 2777.33
1309.96 -343.098 2846.29
1234.89 -329.824 2736.18
1142.89 -311.405 2583.37
1117.56 -310.765 2578.06
1123.32 -318.927 2645.77
1095.57 -317.719 2635.75
1072.4 -317.817 2636.56
1045.85 -316.895 2628.91
1003.51 -311.037 2580.32
978.808 -310.499 2575.86
949.628 -308.481 2559.11
916.594 -305.08 2530.9
895.535 -305.594 2535.17
867.561 -303.714 2519.57
853.369 -306.687 2544.23
825.16 -304.647 2527.31
792.061 -300.636 2494.04
766.485 -299.332 2483.22
719.358 -289.284 2399.86
694.361 -287.791 2387.48
674.104 -288.232 2391.13
649.296 -286.691 2378.35
628.969 -287.092 2381.67
607.809 -287.127 2381.96
585.652 -286.677 2378.23
564.207 -286.555 2377.22
541.636 -285.828 2371.19
521.046 -286.131 2373.7
499.149 -285.711 2370.22
478.26 -285.856 2371.42
456.564 -285.511 2368.56
434.707 -285.026 2364.54
414.942 -285.934 2372.06
391.928 -284.579 2360.83
372.471 -285.801 2370.96
350.774 -285.347 2367.2
329.94 -285.582 2369.15
308.15 -284.965 2364.03
286.907 -284.8 2362.66
265.334 -284.257 2358.16
245.358 -285.476 2368.27
223.594 -284.65 2361.42
202.36 -284.397 2359.32
181.453 -284.599 2361
160.37 -284.541 2360.51
139.928 -285.774 2370.74
118.251 -284.476 2359.98
97.0039 -283.873 2354.97
76.0319 -283.964 2355.73
55.1116 -284.393 2359.28
34.0966 -284.56 2360.67
13.0175 -283.867 2354.92
-7.98869 -284.228 2357.92
-28.9851 -283.969 2355.77
-49.855 -283.21 2349.47
-70.8164 -283.265 2349.93
-91.8176 -283.419 2351.2
-112.737 -283.31 2350.3
-134.138 -284.256 2358.14
-154.754 -283.506 2351.93
-175.911 -283.809 2354.44
-197.015 -283.971 2355.78
-217.394 -283.157 2349.03
-238.738 -283.632 2352.97
-259.26 -283.133 2348.83
-280.981 -283.921 2355.37
-301.531 -283.498 2351.86
-321.187 -282.343 2342.28
-343.662 -283.657 2353.18
-365.996 -284.71 2361.91
-386.204 -284.085 2356.73
-406.969 -283.912 2355.3
-428.21 -284.073 2356.63
-448.325 -283.506 2351.92
-468.714 -283.155 2349.02
-492.26 -284.66 2361.5
-528.64 -293.159 2432
-551.273 -293.665 2436.2
-576.439 -295.431 2450.85
-597.806 -295.191 2448.86
-619.339 -295.048 2447.68
-640.809 -294.886 2446.33
-662.99 -295.05 2447.69
-684.343 -294.848 2446.01
-711.408 -297.042 2464.22
-726.255 -294.157 2440.29
-749.977 -294.93 2446.7
-771.96 -294.994 2447.23
-794.82 -295.381 2450.44
-812.967 -294.043 2439.34
-836.352 -294.619 2444.12
-859.43 -295.061 2447.78
-884.194 -296.045 2455.95
-900.777 -294.309 2441.55
-924.103 -294.806 2445.67
-946.002 -294.835 2445.91
-968.579 -295.069 2447.85
-991.5 -295.396 2450.57
-1011.75 -294.929 2446.69
-1026.85 -293.013 2430.79
-1055.82 -295.053 2447.72
-1069.36 -292.787 2428.92
-1098.05 -294.672 2444.56
-1129.8 -297.292 2466.3
-1136.57 -293.365 2433.71
-1165.87 -295.291 2449.69
-1182.34 -293.953 2438.6
-1205.18 -294.222 2440.82
-1232.01 -295.438 2450.91
-1246.24 -293.642 2436.01
-1270.3 -294.184 2440.51
-1303.2 -296.72 2461.55
-1325.02 -296.691 2461.31
-1328.62 -292.652 2427.8
-1399.38 -303.296 2516.1
-1434.09 -305.915 2537.83
0 0 0
0 0 0
1474.56 -399.302 3084.41
1384.49 -382.038 2951.06
1291.34 -363.235 2805.82
1259.91 -361.396 2791.61
1222.2 -357.644 2762.62
1164.71 -347.832 2686.83
1148.27 -350.125 2704.54
1122.74 -349.682 2701.13
1059.04 -337.073 2603.72
1016.96 -330.934 2556.31
1003.63 -334.083 2580.63
972.931 -331.463 2560.39
953.546 -332.664 2569.67
943.084 -337.114 2604.04
904.249 -331.391 2559.83
898.379 -337.764 2609.07
841.48 -324.782 2508.78
823.725 -326.611 2522.91
794.275 -323.775 2501.01
753.715 -316.116 2441.85
711.795 -307.414 2374.63
690.055 -307.161 2372.67
671.803 -308.494 2382.97
649.678 -308.077 2379.75
627.057 -307.389 2374.43
605.71 -307.299 2373.74
585.283 -307.687 2376.73
562.475 -306.805 2369.92
541.954 -307.15 2372.58
520.075 -306.722 2369.28
499.034 -306.773 2369.67
478.736 -307.305 2373.79
457.583 -307.313 2373.85
435.501 -306.667 2368.86
415.184 -307.262 2373.45
392.321 -305.935 2363.2
371.149 -305.85 2362.55
350.979 -306.632 2368.58
329.038 -305.866 2362.67
308.202 -306.094 2364.43
286.955 -305.917 2363.06
265.602 -305.589 2360.53
244.785 -305.876 2362.74
223.257 -305.244 2357.86
202.394 -305.484 2359.72
181.331 -305.444 2359.41
160.396 -305.637 2360.9
139.424 -305.807 2362.21
117.973 -304.799 2354.42
97.061 -305.049 2356.35
76.0446 -305.019 2356.12
54.9354 -304.451 2351.74
34.0163 -304.887 2355.1
13.0581 -305.812 2362.25
-7.96985 -304.531 2352.36
-28.9533 -304.639 2353.19
-49.8634 -304.209 2349.87
-70.679 -303.627 2345.37
-91.7944 -304.305 2350.61
-112.899 -304.702 2353.68
-133.823 -304.562 2352.6
-154.78 -304.527 2352.33
-176.532 -305.877 2362.75
-196.883 -304.77 2354.2
-217.889 -304.792 2354.38
-238.579 -304.408 2351.4
-258.761 -303.49 2344.32
-279.737 -303.571 2344.94
-300.575 -303.502 2344.4
-321.784 -303.791 2346.64
-343.006 -304.057 2348.69
-363.325 -303.537 2344.68
-385.792 -304.771 2354.21
-407.38 -305.22 2357.67
-428.287 -305.139 2357.05
-447.85 -304.153 2349.43
-470.937 -305.541 2360.16
-489.516 -304.011 2348.33
-527.032 -313.884 2424.61
-543.691 -311.048 2402.69
-568.116 -312.701 2415.46
-598.363 -317.32 2451.15
-618.944 -316.669 2446.11
-636.379 -314.507 2429.42
-662.571 -316.673 2446.15
-677.497 -313.488 2421.54
-710.411 -318.566 2460.77
-727.221 -316.334 2443.53
-758.822 -320.48 2475.55
-770.592 -316.252 2442.89
-785.762 -313.614 2422.52
-816.243 -317.064 2449.17
-843.242 -319.017 2464.25
-863.851 -318.515 2460.37
-887.369 -319.084 2464.77
-906.434 -318.063 2456.88
-926.372 -317.388 2451.67
-950.111 -318.018 2456.53
-972.407 -318.147 2457.53
-1004.34 -321.354 2482.3
-1016.87 -318.346 2459.07
-1049.84 -321.734 2485.24
-1057.59 -317.409 2451.83
-1074.38 -315.918 2440.31
-1097.86 -316.413 2444.14
-1119.26 -316.303 2443.29
-1145.63 -317.575 2453.11
-1177.21 -320.214 2473.5
-1210.32 -323.167 2496.31
-1218.19 -319.394 2467.17
-1236.28 -318.39 2459.41
-1266.42 -320.467 2475.46
-1317.82 -327.762 2531.81
-1336.48 -326.805 2524.41
-1363.45 -327.877 2532.69
-1366.13 -323.172 2496.34
0 0 0
0 0 0
1389.71 -387.779 2802.4
1297.35 -368.635 2664.06
1259.15 -364.453 2633.83
1226.38 -361.716 2614.05
1217.49 -366.049 2645.36
1175.83 -360.506 2605.31
1140.72 -356.79 2578.45
1097.66 -350.386 2532.17
1098.28 -357.945 2586.8
1071.74 -356.787 2578.43
1032.56 -351.278 2538.62
1026.2 -356.938 2579.52
1007.28 -358.389 2590.01
984.262 -358.417 2590.21
942.556 -351.477 2540.05
917.454 -350.539 2533.28
907.598 -355.526 2569.31
879.035 -353.253 2552.89
851.627 -351.336 2539.03
829.313 -351.473 2540.03
798.529 -347.927 2514.4
759.34 -340.409 2460.07
718.998 -331.911 2398.66
694.291 -330.331 2387.24
675.376 -331.494 2395.64
648.968 -328.935 2377.15
631.684 -330.984 2391.95
607.003 -329.165 2378.81
586.058 -329.313 2379.88
565.512 -329.705 2382.72
542.012 -328.338 2372.84
523.317 -329.89 2384.05
498.881 -327.8 2368.95
478 -327.965 2370.14
457.441 -328.376 2373.11
436.261 -328.36 2372.99
414.199 -327.644 2367.82
392.36 -327.037 2363.43
372.877 -328.436 2373.55
351.158 -327.916 2369.79
329.069 -326.963 2362.9
308.487 -327.478 2366.62
288.296 -328.513 2374.1
266.069 -327.211 2364.69
245.011 -327.244 2364.93
224.118 -327.525 2366.96
203.005 -327.509 2366.84
181.575 -326.92 2362.59
160.344 -326.579 2360.12
139.787 -327.718 2368.35
118.628 -327.6 2367.5
97.2735 -326.772 2361.52
76.4029 -327.562 2367.22
55.1486 -326.682 2360.87
34.1195 -326.873 2362.25
13.0866 -327.587 2367.41
-7.97728 -325.808 2354.55
-28.9193 -325.238 2350.43
-50.0572 -326.423 2359
-70.8051 -325.117 2349.56
-91.8803 -325.567 2352.81
-113.052 -326.127 2356.86
-133.498 -324.747 2346.88
-154.795 -325.53 2352.55
-176.253 -326.425 2359.01
-196.654 -325.381 2351.46
-218.183 -326.224 2357.56
-237.702 -324.177 2342.76
-259.222 -324.97 2348.49
-281.174 -326.145 2356.99
-300.985 -324.846 2347.6
-322.49 -325.426 2351.79
-344.044 -325.98 2355.8
-365.033 -325.967 2355.7
-385.992 -325.93 2355.43
-406.41 -325.463 2352.06
-428.155 -326.053 2356.32
-449.013 -325.944 2355.54
-468.273 -324.736 2346.8
-490.381 -325.522 2352.49
-526.231 -334.992 2420.92
-544.178 -332.767 2404.85
-573.838 -337.603 2439.79
-600.521 -340.397 2459.99
-616.559 -337.174 2436.69
-643.466 -339.911 2456.47
-664.956 -339.701 2454.95
-679.697 -336.166 2429.41
-705.243 -338.029 2442.87
-723.609 -336.441 2431.39
-755.684 -341.135 2465.31
-779.909 -342.12 2472.43
-801.14 -341.773 2469.92
-816.948 -339.193 2451.28
-839.146 -339.331 2452.28
-866.233 -341.39 2467.16
-890.141 -342.125 2472.47
-919.914 -345.023 2493.41
-926.471 -339.283 2451.94
-954.506 -341.492 2467.9
-983.826 -344.051 2486.39
-1010.02 -345.429 2496.35
-1033.28 -345.764 2498.77
-1039.92 -340.64 2461.74
-1058.51 -339.563 2453.95
-1088.51 -342.117 2472.41
-1105.32 -340.503 2460.75
-1145.86 -346.121 2501.35
-1165.52 -345.338 2495.69
-1202.94 -349.75 2527.58
-1232.98 -351.89 2543.04
-1234.61 -345.993 2500.43
-1288.61 -354.721 2563.5
-1271.57 -343.93 2485.52
-1332.64 -354.275 2560.28
-1339.43 -350.084 2529.98
0 0 0
0 0 0
0 0 0
0 0 0
1338.98 -397.697 2700.11
1270.86 -384.376 2609.66
1214.26 -374.105 2539.93
1198.6 -376.3 2554.83
1175.62 -376.236 2554.39
1139.13 -371.76 2524.01
1116.67 -371.773 2524.1
1096.51 -372.569 2529.5
1083.56 -375.903 2552.13
1046.64 -370.88 2518.04
1022.87 -370.402 2514.79
999.451 -370.034 2512.29
977.097 -370.051 2512.41
957.851 -371.274 2520.71
927.046 -367.967 2498.26
910.706 -370.381 2514.64
882.176 -367.833 2497.35
871.603 -372.835 2531.31
840.592 -369.128 2506.13
812.393 -366.486 2488.2
791.028 -366.867 2490.78
764.023 -364.577 2475.24
720.733 -354.149 2404.44
694.874 -351.91 2389.24
670.296 -350.199 2377.62
650.561 -350.988 2382.98
630.946 -351.899 2389.16
609.473 -351.8 2388.49
587.261 -351.251 2384.77
562.101 -348.832 2368.34
542.691 -349.932 2375.81
520.572 -349.303 2371.54
499.509 -349.36 2371.93
477.623 -348.821 2368.27
456.516 -348.827 2368.31
436.629 -349.812 2374.99
414.38 -348.907 2368.85
392.208 -347.974 2362.52
371.348 -348.165 2363.81
350.294 -348.186 2363.96
329.758 -348.759 2367.84
307.214 -347.139 2356.85
287.464 -348.672 2367.25
266.516 -348.878 2368.66
245.117 -348.479 2365.95
